ply
format ascii 1.0
comment PCL generated
element vertex 336
property float x
property float y
property float z
element camera 1
property float view_px
property float view_py
property float view_pz
property float x_axisx
property float x_axisy
property float x_axisz
property float y_axisx
property float y_axisy
property float y_axisz
property float z_axisx
property float z_axisy
property float z_axisz
property float focal
property float scalex
property float scaley
property float centerx
property float centery
property int viewportx
property int viewporty
property float k1
property float k2
end_header
-2963.3601 10422.71 14217.36
-2974.9199 10432.94 14213.23
-2954.6101 10445.22 14220.02
-2991.3 10429.68 14212.19
-2984.05 10430.81 14210.99
-2960.48 10443.03 14216.51
-2996.1499 10446.62 14214.07
-2989.9099 10451.32 14217.73
-2966.8101 10465.36 14225.7
-3000.26 10460.94 14212.37
-2993.74 10464.71 14214.75
-2992.4099 10494.31 14231.65
-2970.6101 10478.77 14222.72
-3019.9199 10472.63 14212.95
-3013.3701 10480.11 14218.54
-3004.6101 10476.09 14211.76
-2998.0901 10479.92 14214.22
-2993.4299 10497.88 14215.31
-2987.1599 10506.44 14223.8
-2976.95 10501.13 14231.87
-3024.8101 10489.59 14214.79
-3015.9199 10488.99 14209.42
-3008.7 10490.36 14209.95
-3002.6799 10495.95 14214.79
-2998.79 10516.67 14219.59
-2990.98 10519.85 14220.77
-2979.99 10511.86 14225.21
-3020.8201 10506.01 14211.32
-3014.53 10510.68 14214.89
-3006.26 10508.46 14210.58
-3003.5701 10533.44 14219.67
-2996.8201 10540.42 14227.41
-3041.8401 10522.13 14212.21
-3024.9199 10520.29 14209.48
-3018.3701 10524.08 14211.86
-3013.8701 10535.08 14223.98
-3010.21 10556.72 14229.92
-3036.8501 10531.36 14206.44
-3030.3101 10539.03 14213.64
-3023.25 10544.93 14218.47
-3017.1899 10546.67 14218.47
-3012.25 10567.73 14223.21
-3052.1001 10557.62 14216.41
-3043.5601 10554.63 14216.67
-3034.6201 10554.03 14211.32
-3027.6201 10560.16 14217.86
-3021.03 10560.08 14215.41
-3064.5901 10566.62 14210.96
-3055.21 10568.38 14209.77
-3048.72 10572.5 14219.61
-3039.51 10571.02 14213.07
-3032.75 10578.05 14220.79
-3026.6699 10579.79 14220.79
-3021.1799 10599.05 14223.05
-3068.73 10580.9 14209.05
-3060.6299 10587.14 14213.87
-3056.45 10599.32 14213.41
-3046.46 10595.21 14224.44
-3038.1499 10596.88 14224.97
-3029.75 10590.56 14214.14
-3083.24 10608.13 14218.4
-3073.6599 10597.9 14210.76
-3066.3301 10606.85 14219.21
-3050.3401 10612.51 14226.15
-3042.1799 10610.96 14221.33
-3036.3401 10613.59 14222.51
-3086.3701 10618.89 14211.71
-3079.5701 10618.27 14215.55
-3069.6201 10618.21 14211.92
-3060.76 10614.28 14210.94
-3046.8101 10627.1 14221.84
-3091.8201 10637.67 14215.75
-3084.76 10636.17 14218.41
-3074.28 10634.34 14212.41
-3064.8999 10628.64 14209.07
-3060.6001 10648.22 14220.44
-3051.6899 10644.13 14223.51
-3044.8101 10647.06 14224.7
-3103.8899 10648.71 14212.59
-3086.5601 10642.38 14205.63
-3078.9399 10650.48 14212.89
-3072.6201 10655.39 14212.47
-3062.3601 10654.34 14217.38
-3051.1799 10669.36 14222.09
-3092.8201 10663.95 14213.34
-3083.6101 10666.62 14213.34
-3080.4399 10686.37 14222.43
-3067.26 10671.38 14219.02
-3112.02 10680.39 14212.29
-3105.3 10684.02 14212.94
-3097.76 10680.99 14214.96
-3088.54 10683.66 14214.96
-3072.1599 10688.43 14220.63
-3117.6899 10699.86 14215.72
-3108.9399 10696.56 14208.56
-3102.1001 10695.96 14212.41
-3093.46 10700.7 14216.57
-3085.55 10704.07 14223.5
-3076.8101 10704.6 14221.06
-3130.3201 10708.81 14210.14
-3122.3899 10716.01 14216.12
-3114.4099 10715.38 14212.5
-3106.78 10712.11 14212.82
-3098.05 10716.57 14215.18
-3089.9299 10719.29 14222.64
-3136.3601 10729.47 14216.5
-3125.25 10725.82 14208.09
-3117.8 10727.03 14206.91
-3111.2 10727.32 14211.95
-3103.77 10736.36 14220.36
-3095.3799 10738.2 14226.65
-3138.72 10741.36 14210.82
-3131.54 10747.39 14215.61
-3165.1699 10766.65 14228.61
-3153.0701 10756 14214.14
-3144.5 10761.15 14215.96
-3135.1899 10759.93 14211.17
-3129.22 10766.32 14215.42
-3165.5901 10768.08 14208.07
-3157.8101 10772.16 14214.48
-3149.1599 10777.09 14214.58
-3139.1101 10773.37 14207.9
-3133.9199 10782.5 14215.75
-3128.1699 10785.85 14226.2
-3119.6299 10791.23 14229.73
-3160.95 10782.86 14207.58
-3154.1499 10794.16 14216.07
-3146.3899 10798.36 14218.42
-3140.48 10805.06 14224.46
-3131.21 10796.33 14217.58
-3123.75 10809.34 14230.76
-3175.6201 10802.2 14211.04
-3168.01 10806.96 14216.91
-3157.54 10805.76 14210.33
-3150.8501 10813.66 14217.54
-3145.4399 10822.15 14225.93
-3180.1001 10817.43 14210.07
-3171.4099 10818.56 14211.16
-3164.1299 10828.33 14219
-3154.77 10827.11 14214.22
-3148.5801 10836.81 14223.78
-3193.3999 10839.61 14223.39
-3186.73 10840 14218.72
-3178.5601 10842.94 14222.14
-3170.1899 10849.07 14225.21
-3160.01 10845.1 14216.83
-3195.75 10847.57 14212.84
-3190.1399 10851.6 14212.94
-3179.3301 10849.41 14209.24
-3172.73 10857.74 14214.19
-3165 10862.22 14218.24
-3198.6599 10861.32 14209.47
-3193.52 10866.97 14210.28
-3185.1399 10869.26 14214.24
-3177.73 10874.85 14215.59
-3171.8501 10885.73 14228.01
-3211.51 10874.17 14208.52
-3202.6201 10874.77 14206.1
-3198.5601 10884.08 14211.66
-3192.49 10894.32 14224.62
-3183.54 10894.73 14220.56
-3217.9099 10895.82 14215.83
-3209.48 10898.04 14214.11
-3204.6599 10904.85 14217.79
-3195.6399 10905.09 14217.71
-3190.3999 10918.2 14230.21
-3223.4199 10914.48 14217.81
-3212.6299 10908.74 14207.11
-3207.27 10913.75 14208.44
-3199.5901 10918.56 14214.29
-3194.0701 10930.78 14225.62
-3236.8601 10929.12 14219.14
-3226.8601 10926.14 14212.04
-3218.75 10929.51 14213.21
-3214.1699 10937.24 14218.05
-3206.21 10941.15 14222.73
-3199.0801 10947.92 14226.94
-3240.5801 10941.68 14214.53
-3232.1799 10944.16 14214.53
-3222.98 10943.88 14210.94
-3219.95 10956.88 14221.23
-3212.04 10961.05 14227.63
-3243.48 10951.48 14206.32
-3236.98 10960.39 14214.66
-3228.5701 10962.87 14214.66
-3224.46 10972.22 14220.18
-3252.1001 10980.57 14223.11
-3242.3101 10978.43 14217.11
-3233.8101 10980.67 14215.39
-3264.1201 10986.35 14211.91
-3255.1899 10991.03 14214.32
-3246.8401 10993.77 14216.04
-3239.9399 11001.49 14221.4
-3268.45 11004.77 14214.4
-3260.27 11008.17 14215.57
-3251.28 11008.8 14213.15
-3247.1599 11026 14232.14
-3282.46 11020.96 14216.24
-3272.98 11020.05 14213.22
-3287.2 11036.9 14214.49
-3279.1001 11040.63 14217.45
-3270.1699 11041.58 14216.84
-3264.96 11055.13 14231.06
-3291.77 11052.25 14213.35
-3283.3701 11055.02 14215.07
-3274.7 11056.88 14215.62
-3303.8101 11069.38 14216.93
-3287.9299 11070.37 14213.91
-3278.6201 11070.11 14210.34
-3272.1299 11083.35 14225.1
-3307 11080.08 14209.78
-3301.1699 11083.8 14212.11
-3291.3799 11081.98 14207.93
-3324.6599 11108.15 14221.16
-3312.05 11097 14209.2
-3307.6799 11105.64 14219.22
-3292.0701 11115.56 14226.83
-3326.76 11115.16 14209.26
-3316.6201 11112.3 14207.92
-3311.3999 11118.16 14214.37
-3303.4299 11122.57 14216.77
-3332.6599 11134.87 14212.2
-3323.4099 11135.07 14216.15
-3318.1101 11140.68 14220.87
-3300.6599 11148.47 14226.7
-3338.6201 11154.8 14216.76
-3326.8799 11146.68 14210.11
-3321.8601 11153.26 14216.07
-3311.46 11149.58 14209.5
-3305.2 11163.81 14225.38
-3342.6599 11168.29 14213.1
-3331.47 11162.07 14208.85
-3324.8101 11167.1 14212.41
-3321.53 11183.5 14231.83
-3311.05 11183.57 14228.28
-3351.71 11167.35 14213.78
-3348.9399 11189.27 14218.93
-3322.24 11185.89 14214.01
-3356.3101 11182.67 14212.42
-3351.0701 11200.29 14211.69
-3342.5 11199.03 14212.76
-3337 11208.04 14222.75
-3372.1699 11204.27 14215.35
-3362.5901 11203.59 14218.15
-3358.3601 11224.68 14220.39
-3348.46 11218.99 14217.25
-3343.1399 11228.67 14226.67
-3378.47 11225.2 14221.05
-3369.05 11225.12 14213.5
-3354.4399 11239.02 14221.79
-3348.3 11245.96 14227.73
-3340.26 11246.58 14227.06
-3383.6699 11242.49 14222.1
-3372.3 11235.94 14216.11
-3365.73 11249.3 14220.98
-3357.9299 11250.71 14215.74
-3353.98 11265.04 14231.01
-3394.3 11254.38 14216
-3387.73 11256 14218.36
-3376.6299 11250.37 14213.53
-3372.1599 11270.79 14216.19
-3363.27 11268.61 14216.13
-3358.8401 11281.38 14230.8
-3398.6699 11268.87 14213.48
-3391.23 11267.62 14212.22
-3382.3799 11269.51 14216.85
-3378.4399 11291.77 14221.81
-3370.9199 11294.23 14227.62
-3363.4399 11296.81 14229.42
-3414.3701 11293.5 14223.81
-3404.1499 11287.02 14215.55
-3395.49 11281.78 14207.88
-3386.98 11284.86 14215.39
-3374.4099 11305.93 14221.53
-3366.0601 11305.64 14219.71
-3416.26 11303.61 14215.33
-3409.0701 11303.35 14215.31
-3401.5701 11305.9 14217.03
-3391.04 11298.38 14211.61
-3379.5601 11323.19 14222.42
-3421.1899 11319.94 14215.06
-3414.75 11322.17 14216.78
-3404.51 11315.68 14208.53
-3397.26 11319.1 14215.48
-3384.99 11341.38 14224.45
-3425.2 11333.19 14209.52
-3420.23 11340.35 14218.8
-3409.98 11333.86 14210.56
-3403.01 11338.26 14218.74
-3388.51 11357.15 14223.01
-3430.6899 11351.37 14211.52
-3424.3101 11353.88 14214.96
-3416.8799 11356.78 14218.47
-3409.5901 11360.2 14225.43
-3401.4299 11368.62 14222.61
-3391.8999 11368.52 14215.06
-3444.1499 11364.42 14211.77
-3435.6299 11367.72 14211.2
-3428.97 11369.31 14213.49
-3421.1399 11370.97 14214.05
-3413.3799 11372.81 14220.43
-3409.0901 11394.24 14224.12
-3449.8601 11383.27 14213.16
-3439.4399 11380.32 14206.19
-3430.79 11375.35 14200.26
-3428.04 11393.9 14221.92
-3422.0901 11405.82 14219.67
-3414.46 11412.19 14224.35
-3405.03 11412.52 14228.43
-3465.1001 11402.02 14216.34
-3456.8101 11406.2 14221.01
-3447.76 11407.86 14219.78
-3442.1001 11412.84 14215.2
-3431.27 11404.61 14214.51
-3469.49 11416.48 14213.59
-3460.6201 11418.76 14215.87
-3450.9199 11418.3 14210.64
-3443.1499 11420.31 14213
-3437.02 11423.75 14217.59
-3429.75 11431.34 14229.3
-3485.21 11436.66 14225.39
-3473.6001 11430.01 14209.68
-3463.8799 11429.53 14208.51
-3457.3 11439.43 14216.13
-3450.0601 11443.21 14220.72
-3444.95 11450.09 14218.52
-3433.24 11442.98 14223.02
-3486.76 11441.76 14210.98
-3478.21 11445.18 14206.4
-3465.6399 11467.02 14229.64
-3492.3101 11459.97 14212.85
-3484.3101 11465.26 14210.55
-3475.1201 11466.62 14211.7
-3468.04 11474.96 14218.73
-3507.46 11486 14224.09
-3498.45 11480.11 14217.07
0 0 0 1 0 0 0 1 0 0 0 1 0 0 0 0 0 336 1 0 0
