ply
format ascii 1.0
comment PCL generated
element vertex 144
property float x
property float y
property float z
element camera 1
property float view_px
property float view_py
property float view_pz
property float x_axisx
property float x_axisy
property float x_axisz
property float y_axisx
property float y_axisy
property float y_axisz
property float z_axisx
property float z_axisy
property float z_axisz
property float focal
property float scalex
property float scaley
property float centerx
property float centery
property int viewportx
property int viewporty
property float k1
property float k2
end_header
319.81 6616.6201 14193.67
320.09 6622.29 14179.21
324.88 6616.2002 14168.47
328.62 6614.7402 14163.99
332.92001 6611.8101 14165.26
344.09 6618.7202 14161.76
348.35999 6615.23 14156.55
352.03 6612.3599 14156.15
302.82999 6648.52 14189.18
307.01999 6642.46 14178.45
310.76001 6640.6099 14196.13
320.45999 6629.8799 14168.91
329.92999 6628.1499 14164.43
333.39999 6621.3398 14159.14
339.25 6623.6299 14164.66
344.57999 6628.25 14155.63
349.60001 6626.6699 14152.83
353.06 6619.8999 14145.86
357.44 6618.3501 14143.05
363.10001 6617.3599 14143.37
307.48999 6652.6802 14171.99
310.88 6643.0898 14173.1
316.39001 6638.23 14165.09
321.60999 6640.6602 14165.49
326.01001 6639.1699 14162.78
330.76999 6645.02 14161.58
334.07999 6634.73 14161.25
339.76999 6633.8501 14158.21
345.07999 6637.7798 14147.73
350.03 6634.9199 14143.98
353.67001 6631.3301 14143.81
358.82001 6632.3701 14146.61
293.67001 6672.6001 14188.23
299.25 6668.4302 14179.91
303.07999 6654.2002 14173.03
307.94 6662.23 14165.83
311.42001 6654.54 14171.03
316.97 6650.3599 14164.47
322.47 6658.2202 14162.31
326.84 6656.0498 14158.15
331 6649.7998 14157.67
334.59 6644.8999 14156.47
340.29001 6644.0098 14153.43
346.17999 6646.6299 14140.24
350.57001 6645.0801 14139.2
289.45001 6678.7402 14195.6
299.56 6675.3701 14168.23
304.07001 6661.75 14162.72
309.10001 6673.6499 14163.75
312.47 6663.4102 14163.52
317.42999 6659.8901 14158.33
322.79001 6664.96 14162.56
327.04001 6660.1499 14154.56
331.60999 6661.9199 14157.05
335.73999 6655.0698 14150
341.39001 6652.8198 14145.84
276.78 6698.1099 14198.45
281.81 6695.29 14192.93
289.79999 6686.9702 14186.63
294.89001 6685.7798 14163.42
304.59 6673.2598 14160.72
309.54001 6683.1899 14157.59
313.01001 6674.8599 14161.44
318.16 6675.2598 14162.79
323.22 6673.8101 14154.96
327.66 6672.9102 14155.28
331.95001 6668.8101 14145.28
341.97 6664.2998 14143.85
277.17001 6707.7002 14190.59
281.92999 6698.3101 14172.92
295.39999 6697.27 14161.41
300.59 6698.3599 14162.44
305.67001 6696.8501 14157.96
310.19 6697.2798 14161.09
318.60999 6684.79 14156.63
323.56 6680.73 14143.28
328.60999 6679.1099 14142.15
272.53 6720.1802 14181.34
277.38 6712.6802 14174.73
282.42001 6709.8501 14169.22
286.66 6703.6299 14166.99
290.39999 6700.8198 14163.16
295.95999 6710.0498 14162.1
301.89999 6713.0898 14167.29
310.64001 6706.8101 14153.14
319.26001 6698.4102 14145.08
324.10999 6692.1602 14141.18
329.28 6692.6001 14142.63
263.57001 6738.6802 14189.67
267.70001 6728.6499 14172.44
272.85999 6728.4399 14172.44
277.69 6720.2402 14164.39
282.85001 6720.0298 14164.39
287.23999 6717.1001 14167.35
291.78 6717.71 14158.56
296.54999 6723.52 14162.45
302.17999 6719.3198 14154.14
306.23001 6709.02 14155.62
310.85999 6711.7402 14137.29
314.41 6704.7598 14143.95
319.42999 6701.8701 14140.12
259.45999 6749.5898 14192.98
268.17999 6740.7598 14171.66
273.19 6736.6401 14163.44
278.22 6733.0298 14165.06
283.35999 6732.1299 14163.61
287.67001 6727.27 14162.51
291.98999 6722.4502 14154.53
296.94 6732.3599 14154.81
302.64001 6729.48 14149.3
306.82001 6721.9399 14144.38
314.92001 6715.5601 14140.48
320.67999 6714.6099 14140.8
259.54999 6751.9102 14171.6
264.66 6749.8301 14160.65
268.51001 6749 14162.74
273.63 6747.46 14159.94
278.67001 6743.8501 14161.56
283.78 6742.3101 14158.76
292.63 6737.21 14159.35
297.22 6738.6099 14141.75
303.01001 6737.7002 14138.63
306.97 6725.3901 14137.64
265.19 6763.3198 14162.73
268.94 6759.8198 14159.23
274.17999 6760.9102 14161.94
279.85001 6756.6602 14160.53
284.20999 6752.48 14153.91
292.95999 6744.7598 14148.99
298.42999 6751.3701 14142.4
303.54999 6749.8301 14137.92
265.66 6775.4302 14161.92
269.42999 6771.98 14158.51
274.64999 6772.4502 14158.19
280.23999 6766.1802 14154.31
285.39999 6765.2798 14152.87
293.37 6754.2798 14142.78
299.03 6764.7998 14144.39
266.14001 6787.6201 14159.51
270.60999 6785.4399 14158.81
275.01001 6781.2798 14150.52
280.57999 6774.3599 14145.29
266.45999 6795.7998 14150.48
270.94 6793.6201 14149.78
0 0 0 1 0 0 0 1 0 0 0 1 0 0 0 0 0 144 1 0 0
