ply
format ascii 1.0
comment PCL generated
element vertex 137
property float x
property float y
property float z
element camera 1
property float view_px
property float view_py
property float view_pz
property float x_axisx
property float x_axisy
property float x_axisz
property float y_axisx
property float y_axisy
property float y_axisz
property float z_axisx
property float z_axisy
property float z_axisz
property float focal
property float scalex
property float scaley
property float centerx
property float centery
property int viewportx
property int viewporty
property float k1
property float k2
end_header
555.22998 5092.4102 14418.78
558.48999 5090.5098 14421.02
564.94 5086.3501 14415.76
545.53003 5112.5298 14428.27
549.16998 5109.5698 14421.11
552.87 5107.0898 14421.85
556.58002 5104.7798 14420.93
559.75 5102 14418.5
566.35999 5099.1802 14419.24
542.75 5114.3901 14426.12
546.37 5120.4902 14415.75
554.03998 5117.8999 14419.57
557.65002 5114.5601 14415.73
561.04999 5113.8398 14419.14
563.89001 5112.6401 14421.05
568.06 5109.9302 14416.96
571.60999 5106.27 14410.05
533.53998 5135.5298 14418.95
540.85999 5124.6699 14419.25
544.28003 5124.1699 14421
548.07001 5131.75 14414.87
552.06 5131.8301 14416.28
555.22998 5128.8901 14415.61
558.84998 5125.5498 14411.78
562.06 5123.1099 14412.52
565.12 5119.3101 14407.27
569.03003 5118.6899 14408.93
572.82001 5117.0601 14407.76
535.21002 5146.7998 14418.06
542.16998 5137.04 14421.28
545.42999 5134.98 14418.7
549.22998 5142.5498 14412.57
556.84003 5139.1401 14411.9
560.57001 5136.8301 14410.98
564.45001 5140.3999 14411.16
529.53998 5159.5601 14417
536.63 5160.3901 14421.33
539.35999 5148.2998 14419.07
550.33002 5152.8599 14408.84
557.95001 5149.4399 14408.18
522.53998 5164.4302 14422
526.27002 5161.79 14417.92
531.35999 5172.3799 14420.42
533.20001 5161.0801 14417.92
537.53998 5169.1499 14413.27
547.79999 5157.29 14413.84
551.76001 5166.2598 14413.77
513.09998 5180.29 14413.35
516.65002 5180.6299 14419.59
519.35999 5177.5698 14420.59
524.23999 5181.2598 14419.09
527.47998 5173.6602 14418.51
532.35999 5182.1899 14415.27
534.32001 5171.8999 14415.59
538.60999 5179.46 14409.53
509.44 5188.9902 14423.32
514.53003 5194.73 14421.08
517.72998 5191.48 14417.35
520.85999 5187.5098 14413.77
525.16998 5185.52 14415.93
529.14001 5189.9702 14414.18
533.41998 5192.5 14411.52
535.59998 5184.27 14417.59
500.25 5208.2998 14419.98
503 5205.4399 14419.33
507.10001 5201.0298 14419.07
511.48001 5204.6099 14419.33
518.85999 5202.8198 14416.41
522.04999 5199.3799 14414.34
526.32001 5196.8799 14415.09
530.13 5194.7402 14412.43
493.85001 5220.54 14423.86
497.89001 5220.52 14420.54
504.20001 5217.8301 14421.29
508.20999 5212.3999 14418.22
511.97 5209.5801 14415.81
516.53003 5214.8501 14412.15
519.78998 5212.1099 14409.83
523.14001 5210.2202 14411.99
527.33002 5206.8301 14408.17
531.40997 5207.29 14412.74
490.35001 5231.6499 14416.77
494.88 5231.3799 14421.5
498.88 5230.8398 14416.77
502.38 5230.5 14416.77
505.84 5229.6299 14421.75
509.32999 5223.9102 14415.61
513.03998 5220.4302 14413.55
518 5224.6001 14406.96
521.41998 5223.3901 14408.88
524.27002 5221.5498 14411.04
528.37 5217.1299 14404.4
477.04001 5246.6001 14419.87
481.01999 5245.7202 14418.46
484.42001 5244.1602 14417.21
487.63 5246 14423.03
492.07999 5244.6899 14418.46
496.04999 5243.8198 14423.54
499.95999 5242.1802 14415.8
503.92999 5241.2798 14414.39
506.81 5239.6201 14414.9
514.04999 5230.75 14409.77
519.25 5237.1699 14407.25
473.76999 5260.9702 14419.64
482.26999 5259.3301 14421.55
488.89999 5254.1499 14413.42
493.10001 5255.52 14416.08
496.89999 5252.71 14413.67
504.87 5251.0898 14409.19
487.07999 5267.3901 14416.85
490.06 5266.5898 14415.44
493.92001 5264.27 14407.96
476.20001 5282.2598 14411.77
480.10999 5280.3501 14413.94
484.26001 5281.04 14416.85
491.23001 5279.1499 14415.6
495.23001 5278.25 14414.2
457.38 5294.8799 14415.85
461.60999 5296.4702 14423.23
472.57999 5287.5098 14422.97
477.45999 5296.27 14417.99
481.51001 5290.1001 14408.72
489.04999 5288.73 14408.97
458.47 5307.4902 14416.08
462.56 5307.3599 14420.91
466.29999 5303.1699 14419.02
470.20999 5301.0898 14416.46
473.35999 5296.2598 14414.83
455.22 5311.4502 14419.63
467.76001 5313.9702 14416.6
471.64001 5311.3701 14412.63
474.14999 5304.9902 14406.69
440.72 5328.3301 14423.56
444.41 5323.29 14417.2
450.20001 5337.0801 14421.63
450.85001 5344.77 14410.65
443.38 5360.54 14413.14
0 0 0 1 0 0 0 1 0 0 0 1 0 0 0 0 0 137 1 0 0
