ply
format ascii 1.0
comment PCL generated
element vertex 62
property float x
property float y
property float z
element camera 1
property float view_px
property float view_py
property float view_pz
property float x_axisx
property float x_axisy
property float x_axisz
property float y_axisx
property float y_axisy
property float y_axisz
property float z_axisx
property float z_axisy
property float z_axisz
property float focal
property float scalex
property float scaley
property float centerx
property float centery
property int viewportx
property int viewporty
property float k1
property float k2
end_header
-1765.86 9299.6104 13124.88
-1758.14 9297.8301 13117.81
-1746.98 9307.2002 13127.7
-1739.22 9310.1904 13128.46
-1732.5699 9314.1699 13132.2
-1772.83 9297.3701 13101.11
-1765.95 9300.0801 13105.67
-1758.73 9300.9404 13102.33
-1746.52 9304.7803 13103.09
-1738.99 9308.9297 13106.82
-1731.84 9310.2598 13106.82
-1725.24 9314.4805 13112.22
-1713.62 9321.5801 13125.6
-1765.55 9297.9404 13082.82
-1759.3101 9304.0303 13086.85
-1746.9399 9307 13086.4
-1739.0699 9309.3701 13087.61
-1732.26 9312.4902 13090.12
-1726.14 9319.3701 13099.25
-1720.91 9321.0098 13121.35
-1714.1899 9324.6904 13110.11
-1706.63 9328.8203 13113.84
-1699.36 9329.5098 13114.29
-1692.36 9331.6699 13115.51
-1687.89 9337.5801 13125.08
-1680.8199 9339.4199 13128.5
-1674.3 9344.2998 13129.57
-1747.85 9311.8701 13073.43
-1738.8199 9308.0703 13065.98
-1732.02 9311.1797 13068.49
-1725.89 9318.0098 13077.53
-1720.67 9319.7402 13099.7
-1713.75 9322.29 13085.58
-1706.55 9328.4004 13093.41
-1699.13 9328.2305 13092.64
-1692.61 9333.0498 13097.58
-1687.34 9334.5801 13101
-1681.38 9342.54 13113.01
-1673.13 9337.7695 13100.55
-1666.95 9344.5498 13109.59
-1661.11 9348.0801 13111.64
-1655.23 9351.4805 13117.5
-1648.0601 9352.7402 13117.5
-1641.13 9355.4199 13122.13
-1721.4 9323.6904 13085.43
-1713.51 9320.9697 13063.95
-1707.24 9332.1504 13077.55
-1700.01 9333.0996 13079.67
-1692.22 9330.8799 13074.73
-1687.26 9334.1396 13080.58
-1681.3101 9342.1104 13092.58
-1673.84 9341.7305 13086.27
-1667.51 9347.71 13094.18
-1661.1899 9348.5195 13092.43
-1654.6899 9348.3896 13093.34
-1648.3 9354.1104 13099.57
-1720.51 9318.8496 13058.86
-1681.39 9342.5801 13073.45
-1674.24 9343.9297 13069.58
-1667.59 9348.1201 13074.97
-1660.95 9347.1904 13070.79
-1655.8101 9354.75 13081.12
0 0 0 1 0 0 0 1 0 0 0 1 0 0 0 0 0 62 1 0 0
