ply
format ascii 1.0
comment PCL generated
element vertex 138
property float x
property float y
property float z
element camera 1
property float view_px
property float view_py
property float view_pz
property float x_axisx
property float x_axisy
property float x_axisz
property float y_axisx
property float y_axisy
property float y_axisz
property float z_axisx
property float z_axisy
property float z_axisz
property float focal
property float scalex
property float scaley
property float centerx
property float centery
property int viewportx
property int viewporty
property float k1
property float k2
end_header
1066.96 5145.0498 14088.2
1071.29 5146.0498 14097.33
1076.0699 5149.25 14110.42
1070.66 5143.0298 14056.1
1075.53 5146.6401 14072.34
1079.55 5148.6201 14085.94
1083.33 5149.4199 14098.38
1087.6899 5150.5601 14105.84
1093.54 5156.25 14103.31
1097.3 5156.9399 14109.28
1071.5699 5144.9502 14030.88
1075.3 5145.5601 14038.59
1079.33 5147.5498 14052.18
1083.72 5148.8501 14049.76
1087.91 5151.5698 14077.7
1093.2 5154.6401 14068.05
1097.33 5157.0601 14076.67
1100.9301 5159.3999 14086.85
1104.88 5156.1001 14084.55
1109.75 5161.9199 14098.37
1115.01 5164.7002 14114.77
1119.26 5165.1699 14114.26
1140.4399 5171.7998 14139.51
1143.3199 5168.3799 14140.52
1088.67 5155.1899 14056.77
1106.4399 5163.3901 14073.64
1110.5699 5163.3101 14071.63
1115.12 5165.21 14085.31
1120.84 5172.48 14103.34
1123.0699 5168.4199 14098.14
1128.8199 5173.3198 14120.34
1141.59 5177.0298 14122.87
1115.67 5167.75 14061.48
1119.92 5168.21 14060.97
1123.4 5169.9302 14071.49
1128.23 5170.6499 14082.27
1133.14 5174.0898 14100.16
1137.17 5173.4902 14104.97
1141.8 5178 14094.72
1146.58 5183.1201 14116.92
1151.13 5184.8501 14132.26
1155.4 5182.9399 14127.7
1129.16 5174.8999 14061.08
1133.71 5174.3198 14056.02
1138.8 5178.54 14088.25
1146.71 5181.3501 14081.66
1151.38 5183.6099 14098.4
1155.63 5183.9399 14099.64
1160.36 5186.4399 14112.97
1169.01 5192.3501 14131.24
1151.25 5182.9902 14066.04
1155.72 5184.3501 14070.09
1160.8101 5188.4502 14087.72
1169.74 5195.5801 14107.23
1173.92 5193.25 14107.74
1178.55 5195.2202 14111.44
1183.26 5197.48 14120.05
1160.34 5186.3599 14049.4
1169.11 5192.7998 14069.07
1174.73 5196.8398 14086.79
1179.16 5197.8999 14086.02
1184.1899 5201.5801 14100.5
1188.17 5202.8901 14106.2
1192.58 5203.8398 14115.31
1196.9399 5204.5098 14119.62
1206.25 5210.6802 14124.68
1179.6 5199.8599 14060.78
1182.99 5196.29 14053.58
1188.13 5202.75 14075.25
1192.7 5204.3701 14084.1
1197.4 5204.27 14088.66
1201.59 5206.4702 14090.7
1206.6 5209.9102 14092.31
1209.9301 5210.6499 14106.41
1197.37 5204.1099 14057.7
1206.8 5210.7798 14064.16
1209.28 5207.8701 14068.34
1214.53 5212.3398 14089.02
1219.7 5216.4199 14106.64
1224.05 5216.9702 14112.69
1228.39 5219.7002 14124.36
1230.98 5217.25 14089.09
1214.62 5212.71 14059.56
1220.91 5219.3198 14084.28
1224.13 5217.3198 14083.14
1228.87 5221.7598 14097.34
1238.41 5228.5698 14118.49
1242.21 5226.7202 14114.02
1254.63 5232.1001 14110.93
1225.49 5223.0801 14066.22
1228.84 5221.6001 14066.48
1231.71 5220.3398 14064.98
1237.5 5224.7202 14077.62
1241.53 5223.8701 14075.87
1246.05 5227.27 14087.27
1250.38 5229.8901 14100.68
1254.95 5233.46 14084.17
1260.46 5236.5098 14105.46
1264.2 5236.6001 14110.01
1242.36 5227.3599 14054.91
1246.51 5229.2002 14062.1
1250.71 5231.2798 14074.01
1255.41 5235.3799 14059.01
1260.41 5236.2998 14074.5
1264.28 5236.9199 14080.45
1269.62 5241.4102 14101.21
1272.96 5242 14108.83
1277.17 5241.8301 14115.04
1282.6 5246.6099 14106.24
1265.39 5239.3301 14054.93
1269.3 5240.1001 14067.36
1273.0601 5242.4302 14077.61
1278.02 5245.3198 14094.07
1282.7 5247.02 14075.02
1286.89 5246.71 14082.89
1292.75 5253.1699 14102.87
1295.8 5252.5601 14101.21
1300.1 5252.6699 14112.24
1278.22 5246.1499 14066
1287.88 5248.5801 14055.97
1292.16 5250.7998 14066.21
1295.08 5249.6499 14063.16
1300.9301 5253.8599 14085.47
1306.14 5259.7598 14097.58
1310.61 5258.3599 14100.9
1315.04 5261.0698 14112.54
1300.76 5253.1802 14051.46
1306.5699 5259.3501 14066.61
1310.28 5257.04 14067.13
1314.97 5260.7998 14081.58
1318.9399 5263.8301 14099.79
1324.12 5263.0898 14101.19
1329.89 5268.9102 14103.4
1333.1899 5264.9902 14099.63
1319.38 5263.4199 14068.83
1324.1801 5263.3198 14071.63
1330.11 5269.8101 14073.57
1334.36 5269.6001 14079.79
0 0 0 1 0 0 0 1 0 0 0 1 0 0 0 0 0 138 1 0 0
