ply
format ascii 1.0
comment PCL generated
element vertex 159
property float x
property float y
property float z
element camera 1
property float view_px
property float view_py
property float view_pz
property float x_axisx
property float x_axisy
property float x_axisz
property float y_axisx
property float y_axisy
property float y_axisz
property float z_axisx
property float z_axisy
property float z_axisz
property float focal
property float scalex
property float scaley
property float centerx
property float centery
property int viewportx
property int viewporty
property float k1
property float k2
end_header
-822.27002 7406.46 14200.71
-845.03998 7423.3101 14204.35
-830.34998 7427.2202 14213.57
-831.79999 7440.2002 14213.59
-826.33002 7443 14221.03
-854.10999 7452.0801 14206.04
-848.23999 7451.3799 14206.76
-842.28998 7449.9902 14207.84
-833.65002 7456.71 14220.32
-848.91998 7463.7402 14205.43
-838.91998 7465.0098 14213.95
-835.02002 7469.0098 14218.99
-857.01001 7477.3398 14204.7
-851.52002 7486.6299 14224.24
-863.38 7482.23 14208.64
-858.51001 7496.79 14216.77
-852.67999 7496.79 14218.82
-847.58002 7496.75 14220.96
-881.47998 7500.1802 14208.37
-874.69 7498.1602 14204.76
-876.20001 7511.1699 14204.7
-866.95001 7513.2002 14218.01
-861.89001 7526.3198 14221.69
-884.28998 7524.0801 14204.28
-906.85999 7535.3301 14208.91
-864.78998 7551.6401 14220.22
-914.94 7547.52 14207.14
-908 7544.77 14202.12
-875.63 7556.5801 14216.94
-927.29999 7558.4902 14205.72
-922.14001 7558.4302 14206.09
-909.47998 7557.0698 14200.71
-904.78003 7566.9702 14213.1
-882.53998 7571.8101 14218.84
-877.13 7569.5898 14216.84
-911.38 7572.9302 14205.98
-895.57001 7576.1401 14201.88
-930.48999 7584.4702 14203.81
-926.33002 7592.75 14209.99
-919.58002 7585.8301 14205.5
-913.21997 7594.2998 14208.31
-907.63 7590.8301 14208.82
-898.10999 7597.6802 14216.1
-932 7596.77 14202.36
-927.16998 7599.6201 14209.79
-920.85999 7602.4702 14210.37
-914.14001 7601.8799 14209.42
-944.5 7614.1001 14206.12
-934.03998 7613.3599 14208.91
-928.92999 7614.0498 14212.29
-922.53003 7616.2002 14211.55
-915.78998 7615.6099 14210.6
-911.26001 7621.21 14216.64
-945.65997 7623.48 14199.19
-940.27002 7627.8701 14207.65
-929.62 7625.7402 14209.5
-923.76001 7626.3398 14206.03
-947.72998 7640.1299 14205.8
-931.37 7640.1499 14210.28
-925.69 7642.29 14211.32
-938 7651.77 14205.41
-933.14001 7654.6401 14212.83
-927.78998 7659.6299 14219.14
-945.34998 7669.0898 14209.47
-940.03998 7668.3999 14211.9
-935.08002 7670.5698 14218
-975.22998 7675.0298 14207.66
-958.90002 7681.9302 14206.75
-946.96002 7682.1201 14209.27
-941.81 7682.8599 14214.33
-965.69 7682.3799 14202.63
-960.79999 7697.1499 14210.57
-948.56 7695.1602 14209.05
-978.35999 7699.6602 14204.59
-967.78003 7699.0298 14209.08
-962.15002 7708 14206.31
-950.89001 7714.0098 14219.53
-945.28003 7711.1401 14217.93
-997.94 7711.8101 14205.3
-992.47998 7716.1201 14208.59
-969.04999 7709.1602 14203.5
-964.59998 7727.5898 14216.48
-957.76001 7727.1001 14218.92
-993.78003 7726.21 14201.3
-981.28998 7728.7002 14207.78
-976.02002 7728.6802 14208.15
-971.23999 7726.5498 14209.64
-966.21997 7740.6401 14216.23
-1011.61 7735.8799 14205.17
-995.54999 7739.9702 14202.36
-989.70001 7741.4502 14203.68
-983.5 7746.0898 14215.49
-978.21997 7746.0898 14215.86
-973.60999 7745.4199 14220.08
-967.84998 7753.7002 14215.96
-1003.09 7751.6099 14204.16
-997.51001 7755.21 14206.12
-991.17999 7753.0601 14200.78
-984.97998 7757.73 14212.58
-979.87 7759.1499 14215.59
-974.59998 7759.29 14221.12
-1014.56 7764.2598 14208.65
-1004.87 7765.3901 14205.18
-999.09003 7767.4902 14204.44
-992.76001 7771.27 14209.78
-981.71002 7773.6899 14218.02
-1022.61 7773.5898 14206.39
-1016.36 7778.0298 14209.67
-1006.56 7778.4399 14204.89
-1000.49 7784.3501 14210.87
-994.98999 7788.7598 14217.53
-988.84998 7788.21 14219.97
-1031.0601 7791.6201 14213.39
-1023.48 7786.02 14204.78
-1018.17 7791.8501 14210.76
-1008.82 7795.9102 14212.63
-1002.64 7801.0601 14217.21
-997.12 7805.48 14223.87
-1032.49 7802.4702 14209.04
-1025.3 7799.8501 14205.86
-1019.88 7804.9102 14210.44
-1009.57 7807.6299 14209.69
-1003.47 7807.5 14203.22
-1043.76 7812.6602 14202.63
-1033.92 7813.27 14203
-1027.2 7814.2998 14206.47
-1021.86 7820.1001 14212.36
-1016.05 7816.4502 14206.09
-1012.11 7827.2402 14219.65
-1045.6 7826.48 14203.68
-1040.13 7819.7998 14212.91
-1036.11 7835.5801 14208.06
-1029.21 7829.5801 14210.15
-1024.47 7840.1001 14213.39
-1018.75 7843.1099 14217.41
-1013.52 7838.1001 14215.28
-1047.35 7839.54 14203.33
-1043.41 7844.4902 14209.59
-1037.02 7842.4399 14207.64
-1030.25 7837.4902 14200.45
-1025.66 7849.1802 14216.99
-1019.55 7849.2402 14215.68
-1062.38 7860.1699 14209.94
-1055.88 7857.4502 14206.77
-1049.28 7854.0098 14203.9
-1045.34 7858.96 14210.16
-1039.13 7858.46 14212.61
-1027.08 7860.04 14212.61
-1069.22 7859.7598 14204.5
-1063.85 7871.0601 14205.63
-1057.13 7866.75 14197.98
-1065.3101 7881.8599 14199.54
-1059.58 7885 14206.93
-1052.97 7881.6602 14205.84
-1066.91 7899.4502 14207.07
-1075.14 7908.8999 14208.19
-1052.23 7916.5801 14217.9
-1058.4399 7928.3398 14216.16
-1053.86 7928.8901 14214.47
0 0 0 1 0 0 0 1 0 0 0 1 0 0 0 0 0 159 1 0 0
