ply
format ascii 1.0
comment PCL generated
element vertex 69
property float x
property float y
property float z
element camera 1
property float view_px
property float view_py
property float view_pz
property float x_axisx
property float x_axisy
property float x_axisz
property float y_axisx
property float y_axisy
property float y_axisz
property float z_axisx
property float z_axisy
property float z_axisz
property float focal
property float scalex
property float scaley
property float centerx
property float centery
property int viewportx
property int viewporty
property float k1
property float k2
end_header
157.21001 5561.5098 14633.83
128.99001 5564.4399 14610.09
136.62 5570.54 14622.36
149.64999 5578 14640.69
125.64 5581.3101 14618.35
129.39999 5582.1699 14622.92
141.39 5590.2202 14642.64
146.28 5592.5698 14644.91
121.05 5591.7998 14616.1
141.48 5593.6299 14620.03
138.03 5606.04 14618.63
142.17 5599.77 14604.61
117.27 5616.5 14613.19
130.78999 5618.6001 14623.62
133.89 5613.0801 14609.43
122.48 5633.1499 14629.56
127.24 5628.4102 14613.34
110.69 5637.7598 14626.27
114.75 5651.4502 14638.97
118.4 5644.6201 14623.57
97.849998 5646.0601 14611.69
102.33 5654.1401 14626.55
111 5653.7798 14636.49
98.230003 5667.7402 14634.4
102.61 5669.6001 14635.25
107.4 5664.1201 14627.58
86.949997 5676.23 14624.63
95.110001 5676.1001 14624.63
98.470001 5681.5801 14638.9
103.23 5673.4902 14614.11
75.599998 5682.8701 14612.25
78.860001 5682.1299 14612.52
83.279999 5685.9399 14622.49
91.489998 5688.1899 14626.5
95.32 5688.98 14624.56
98.589996 5688.77 14626.23
67.07 5698.8198 14609.4
75.809998 5698.9302 14622.41
79.099998 5699.3301 14625.57
87.339996 5702.23 14629.22
91.599998 5694.8101 14612.44
95.970001 5695.0601 14609.1
62.849998 5712.7202 14613.87
72.169998 5712.96 14625.11
76.019997 5714.4399 14631.07
83.699997 5714.7598 14634.23
87.440002 5708.46 14612.08
59.790001 5734.7002 14626.54
72.480003 5737.4399 14640.13
76.169998 5726.0898 14629.84
79.419998 5722.5698 14623.04
83.809998 5721.9302 14621.55
47.689999 5733.5601 14617.15
59.900002 5745.21 14622.42
63.799999 5748.8999 14642.23
68.169998 5745.3701 14635.43
72.57 5745.29 14643.6
76.239998 5731.02 14611.47
43.419998 5750.8301 14613.71
47.880001 5756.3599 14627.85
56.82 5767.48 14648.06
60.09 5762.98 14636.71
63.869999 5755.5 14628.13
68.230003 5750.29 14617.05
52.439999 5772.5698 14652.62
56.889999 5774.8198 14633.77
43.619999 5777.6001 14634.33
48.02 5773.0801 14622.98
53.040001 5776.9702 14632.94
0 0 0 1 0 0 0 1 0 0 0 1 0 0 0 0 0 69 1 0 0
