ply
format ascii 1.0
comment PCL generated
element vertex 77
property float x
property float y
property float z
element camera 1
property float view_px
property float view_py
property float view_pz
property float x_axisx
property float x_axisy
property float x_axisz
property float y_axisx
property float y_axisy
property float y_axisz
property float z_axisx
property float z_axisy
property float z_axisz
property float focal
property float scalex
property float scaley
property float centerx
property float centery
property int viewportx
property int viewporty
property float k1
property float k2
end_header
-1068.89 7914.0298 14209.35
-1062.73 7914.23 14211.43
-1070.25 7924.1602 14203.61
-1064.49 7927.3198 14211
-1072.52 7940.9399 14209.79
-1067.24 7947.8101 14222.2
-1090.26 7940.25 14200.1
-1086.5699 7952.9502 14205.57
-1074.99 7959.2002 14216.96
-1092.42 7961.6499 14214.26
-1077.16 7975.2798 14221.8
-1120.03 7992.1401 14210.74
-1115.24 7991.3799 14209.83
-1107.46 7980.3198 14206.07
-1095.08 7981.0498 14199.61
-1090.48 7987.3501 14217.46
-1086 7988.7598 14218.85
-1132.42 8002.3799 14211.02
-1127.0699 8003.3101 14214.49
-1121.34 8001.4702 14201.94
-1116.96 8003.75 14208.02
-1103.55 7997.1899 14209.19
-1097.6 7999.3799 14208.42
-1140.1899 8013.04 14206.12
-1133.64 8011.0298 14202.59
-1128.8101 8015.6299 14212.58
-1124.11 8021.2798 14213.33
-1119.3 8020.52 14212.42
-1110.85 8010.3999 14211.77
-1105.46 8011.0298 14209.99
-1100.52 8020.73 14222.51
-1149.11 8026 14208.67
-1142.28 8027.6602 14208.28
-1135.7 8025.6001 14204.68
-1129.92 8023.54 14202.85
-1125.74 8032.8701 14210.11
-1121.24 8034.3701 14213.19
-1112.87 8024.98 14213.86
-1108.4 8032.3799 14224.07
-1143.92 8039.25 14205.05
-1138.29 8043.8999 14211.74
-1127.58 8046.04 14209.66
-1122.86 8046.0098 14210.05
-1114.8 8038.8799 14214.72
-1110.11 8044.77 14222.23
-1146.22 8055.4102 14209.89
-1140.47 8059.2798 14215.18
-1134.55 8056.4502 14211.96
-1128.96 8061.48 14213.01
-1125.22 8062.8701 14216.09
-1117.13 8055.7402 14220.77
-1158.91 8066.8599 14207.54
-1154.0699 8066.1899 14208.32
-1147.77 8066.2598 14205.33
-1141.79 8068.6099 14207.94
-1135.95 8071.9399 14215.39
-1131.53 8079.8101 14220.03
-1126.17 8075.3701 14214.22
-1119.47 8072.5498 14225.11
-1160.79 8079.98 14206.97
-1155.74 8077.8301 14205.14
-1150.05 8082.3198 14208.36
-1144.29 8086.29 14215.33
-1138.11 8087.29 14218.72
-1162.79 8093.9102 14207.76
-1158.04 8093.96 14209.85
-1151.92 8095.46 14207.76
-1140.27 8102.7002 14222.12
-1170.42 8108.3398 14207.68
-1164.6801 8107.0298 14207.17
-1148.86 8118.5801 14224.71
-1172.64 8123.7402 14211.05
-1156.84 8130.0298 14221.1
-1159.03 8145.4102 14224.37
-1187.41 8137.75 14208.85
-1170.74 8154.7598 14218.06
-1189.4399 8151.6299 14209.51
0 0 0 1 0 0 0 1 0 0 0 1 0 0 0 0 0 77 1 0 0
