ply
format ascii 1.0
comment PCL generated
element vertex 106
property float x
property float y
property float z
element camera 1
property float view_px
property float view_py
property float view_pz
property float x_axisx
property float x_axisy
property float x_axisz
property float y_axisx
property float y_axisy
property float y_axisz
property float z_axisx
property float z_axisy
property float z_axisz
property float focal
property float scalex
property float scaley
property float centerx
property float centery
property int viewportx
property int viewporty
property float k1
property float k2
end_header
-37.75 6644.5098 14190.92
-33.950001 6650.1401 14179.9
-28.200001 6647.1899 14194.77
-34 6658.3901 14170.95
-28.219999 6650.25 14174.78
-23.120001 6652.9102 14178.62
-18.030001 6656.79 14186.86
-13.56 6656.7998 14186.86
1.75 6661.27 14199.9
6.8699999 6668.2002 14189.91
31.200001 6673.9199 14207.52
-37.830002 6659.7202 14170.31
-28.26 6661.7202 14172.71
-23.15 6661.7798 14171.03
-18.049999 6663.1201 14173.84
-9.1099997 6664.4502 14174.88
1.76 6666.9702 14185.52
6.8800001 6673.2202 14174.07
10.72 6673.0898 14182.64
15.84 6674.3101 14188.8
21.59 6672.1699 14193.11
26.709999 6672.7402 14197.92
31.84 6676.98 14185.75
35.700001 6679.5601 14193.03
40.84 6680.8501 14194.07
45.959999 6681.46 14197.2
51.73 6681.46 14193.75
-18.08 6673.9502 14170.4
-3.3599999 6677.21 14177.28
2.4000001 6672.6099 14171.04
10.73 6679.3599 14169.51
21.610001 6679.77 14182.79
27.370001 6677.75 14182.08
31.879999 6685.2598 14176.87
35.740002 6685.8398 14179.91
40.869999 6686.4902 14179.59
51.790001 6689.0601 14183.43
-18.1 6681.5298 14160.08
-13.62 6684.1401 14165.6
-2.73 6685.48 14166.63
2.4000001 6684.77 14170.39
21.629999 6686.0801 14167.99
27.4 6684.7202 14170.39
31.93 6694.1299 14169.26
35.779999 6693.4702 14167.9
40.91 6693.4399 14167.9
46.049999 6694 14170.94
51.849998 6697.29 14174.45
60.810001 6694.27 14191.1
65.970001 6696.1401 14195.17
71.099998 6696.1099 14193.5
84.650002 6701.3701 14194.38
-23.27 6694.52 14147.19
6.9099998 6703.1299 14158.29
21.68 6701.0298 14160.93
31.969999 6703.6699 14163.09
35.830002 6702.3198 14160.28
41.619999 6703.6201 14163.09
46.759998 6703.5498 14164.76
51.919998 6706.1899 14166.92
56.43 6706.8301 14164.83
60.939999 6708.1201 14167.63
66.019997 6701.1299 14179.33
76.379997 6708.5298 14174.11
95.699997 6709.9399 14195.23
104.15 6715.4199 14184.17
-13.01 6701.9302 14148.78
11.41 6706.6899 14146.53
16.559999 6708.5801 14154.04
21.700001 6707.7798 14161.16
27.48 6705.77 14160.44
32.02 6713.21 14156.91
35.900002 6716.4502 14163.78
41.689999 6714.4399 14159.62
52.02 6718.3398 14164.49
56.540001 6720.3101 14166.96
66.169998 6716.2798 14158.65
71.889999 6709.3301 14168.67
76.480003 6716.75 14165.13
81.010002 6718.6699 14169.29
84.800003 6713.25 14166.74
2.4100001 6711.4199 14145.95
32.049999 6720.1201 14143.44
41.73 6721.3901 14146.24
46.900002 6723.9102 14155.11
52.09 6727.2402 14156.94
61.060001 6721.6001 14168
72.07 6726.27 14164.07
81.110001 6727.52 14161.65
85.580002 6724.0698 14163.27
95.860001 6721.23 14166.32
57.310001 6734.5801 14156.75
61.16 6731.9302 14151.24
66.989998 6733.8501 14155.4
85.739998 6736.2598 14160.9
96 6730.7598 14158.36
61.189999 6736.0698 14145.95
72.209999 6739.27 14151.13
81.32 6744.6401 14143.42
85.839996 6743.8101 14150.55
91 6743.0698 14150.87
105.3 6748.1401 14160.21
61.959999 6748.8599 14146.61
67.139999 6749.46 14147.96
72.32 6749.4399 14146.28
105.37 6752.2402 14154.82
0 0 0 1 0 0 0 1 0 0 0 1 0 0 0 0 0 106 1 0 0
