ply
format ascii 1.0
comment PCL generated
element vertex 1322
property float x
property float y
property float z
element camera 1
property float view_px
property float view_py
property float view_pz
property float x_axisx
property float x_axisy
property float x_axisz
property float y_axisx
property float y_axisy
property float y_axisz
property float z_axisx
property float z_axisy
property float z_axisz
property float focal
property float scalex
property float scaley
property float centerx
property float centery
property int viewportx
property int viewporty
property float k1
property float k2
end_header
1118.38 4862.9199 14193.85
1121.79 4862.8101 14200.08
1123.59 4857.8599 14198.35
1127.3199 4854.8901 14199.07
1130.85 4853.21 14201.06
1133.95 4851.79 14201.29
1115.97 4869.5498 14199.82
1124.9 4874.1401 14200.83
1129.97 4866.3198 14199.82
1133.05 4862.6401 14195.96
1137.21 4863.5898 14203.46
1141.83 4858.1602 14193.61
1146.76 4860.29 14200.54
1162.3199 4865.6899 14197.42
1111.41 4884.0298 14200.08
1115.11 4883 14201.74
1118.5 4878.4199 14193.39
1121.04 4874.5 14192.85
1127.3 4884.5698 14198.64
1129 4879.1299 14195.5
1133.09 4879.73 14206.31
1135.71 4874.0698 14196.71
1139.1801 4872.0498 14195.53
1142.29 4870.6201 14195.77
1145.8 4872.9399 14204.45
1149.8101 4871.1201 14199.87
1153.5 4872.1602 14200.8
1157.24 4871.2798 14200.8
1164.9399 4876.6201 14196.75
1165.77 4861.5498 14196.97
1116.9301 4890.9702 14192.38
1121.6899 4892.3301 14201.29
1129.37 4893.54 14192.21
1132.11 4892.54 14201.99
1135.4 4889.6802 14202.71
1138.96 4885.8799 14198.85
1145.36 4883.6802 14199.09
1147.9399 4882.0498 14196.27
1152.42 4882.21 14197.44
1156.4399 4882.4702 14198.61
1159.6 4881.21 14197.2
1168.37 4888.8999 14200.3
1171.83 4884.77 14199.85
1174.71 4882.3101 14197.17
1179.99 4877.5298 14198.37
1189.6801 4882.73 14197.48
1192.85 4879.4902 14195.04
1199.54 4880.46 14202.2
1098.14 4908.3198 14196.03
1101.95 4909.8901 14198.37
1105.89 4907.6099 14198.86
1113.49 4906.2598 14195.54
1117.2 4907.3198 14202.95
1120.01 4902.3101 14193.11
1124.08 4902.77 14199.1
1129.86 4910.7002 14200.78
1132.24 4905.9702 14195.75
1135.03 4903.04 14198.13
1138.41 4900.5298 14202.02
1141.78 4897.98 14199.34
1144.8 4896.0601 14198.17
1147.9301 4894.6299 14198.41
1150.85 4894.4502 14199.82
1155.23 4894.1201 14199.58
1158.79 4892.3999 14195
1162.3101 4892.6299 14197.92
1165.28 4890.5298 14198.41
1170.9 4899.4902 14196.44
1174.21 4894.7002 14196.23
1177.46 4893.73 14197.89
1182.64 4888.46 14197.68
1186.53 4886.1099 14198.17
1192.33 4893.6201 14196.69
1201.74 4889.4102 14195.75
1205.84 4887.8799 14200.81
1209.54 4886.79 14195.99
1052 4941.7202 14210.54
1084.27 4930.5498 14199.04
1086.8 4926.3198 14195.44
1090.4301 4924.8198 14202.15
1094.61 4923.5601 14199.08
1097.9 4920.5498 14194.99
1108.24 4918.0498 14196.65
1112.6899 4920.21 14198.84
1116.3199 4918.6899 14199.08
1119.39 4916.9302 14196.16
1127.17 4914.1099 14199.81
1132.15 4920.6499 14197.15
1135.51 4917.9702 14196.22
1137.45 4913.48 14195.92
1140.88 4911.1299 14198.16
1143.98 4907.4302 14194.3
1147.8199 4906.8701 14197.37
1150.49 4905.54 14197.62
1153.66 4906.3799 14201.95
1157.46 4903.5698 14194.55
1161.61 4904.3198 14197.13
1165.26 4902.9399 14195.72
1168.12 4902.4399 14200.54
1173.63 4910.9199 14197.15
1177.1899 4907.1001 14199.77
1180.21 4905.1499 14198.6
1183.37 4901.77 14197.91
1195.11 4905.0298 14197.39
1198.4301 4902.3198 14196.46
1204.29 4899.8101 14193.54
1208.28 4897.7998 14197.19
1212.61 4899.1699 14199.53
1216.08 4897.0801 14198.36
1077.9 4935.4199 14197.84
1089.7 4937.2002 14194.73
1097.05 4934.5098 14198.28
1100.5699 4932.5098 14197.11
1107.34 4931.6899 14196.87
1115.3101 4929.5698 14193.8
1119.03 4930.6401 14201.2
1121.99 4928.3799 14196.87
1125.58 4926.6802 14198.77
1129.72 4925.2202 14197.35
1135.48 4932.9702 14200.68
1138.14 4929.3901 14196.82
1140.1 4924.9199 14196.63
1143.3 4921.5698 14195.94
1147.46 4920.23 14199.25
1150.38 4917.8198 14196.67
1153.29 4915.3701 14193.99
1156.47 4916.21 14198.32
1160.28 4913.3901 14190.92
1164.3199 4915.75 14197.84
1168.09 4914.8599 14197.84
1183.22 4915.6299 14194.73
1186.36 4914.1699 14201.44
1191.59 4906.9302 14193.75
1198.02 4916.9502 14199.5
1201.22 4913.7002 14197.07
1204.62 4911.3101 14192.83
1207.6899 4911.5898 14195.65
1211.9301 4910.5498 14202.13
1215.47 4910.75 14198.58
1228.24 4899.8398 14194.77
1237.76 4903.9199 14197.31
1240.33 4902.23 14200.96
1041.0699 4960.3999 14208.13
1067.29 4955.1499 14198.25
1070.75 4955.1001 14198
1073.72 4952.73 14195.42
1077.1899 4950.3999 14197.56
1080.99 4947.29 14199.95
1084.42 4944.8101 14197.37
1090.05 4954.5698 14201.6
1092.6 4950.3301 14198
1097.0601 4952.5 14200.19
1099.49 4945.4902 14197.56
1103.24 4944.4702 14199.22
1106.22 4942.2202 14194.89
1113.88 4940.8701 14198.05
1121.8 4940.6602 14195.91
1126.29 4945.0498 14195.62
1132.11 4935.6602 14195.13
1140.5601 4939.8599 14194.69
1142.51 4935.3599 14194.4
1145.84 4932.4902 14195.13
1149.9 4930.7002 14197.12
1153.17 4929.75 14198.78
1155.97 4926.8101 14194.69
1158.92 4926.6299 14196.1
1163.21 4925.7998 14194.45
1167.54 4927.25 14196.88
1170.5699 4925.2798 14195.61
1173.48 4924.96 14198.78
1179.8 4934.6699 14201.36
1182.7 4927.9902 14193.67
1188.4 4922.5898 14193.47
1194.72 4919.8501 14198.78
1201.1899 4927.9102 14197.03
1204.27 4924.1602 14193.18
1210.62 4923.5 14197.76
1214.3 4920.1499 14195.42
1219.13 4923.5098 14203.5
1222.21 4919.75 14199.66
1224.98 4916.7998 14195.66
1227.27 4913.9399 14198.05
1231.6899 4911.6099 14196.88
1237.58 4919.0898 14201.85
1240.76 4915.7998 14199.42
1242.71 4911.6401 14195.91
1246.1 4909.1899 14198.05
1249.4399 4906.5698 14195.37
1052.5699 4974.8301 14200.53
1055.5601 4972.4702 14197.95
1058.38 4971.6899 14199.61
1062.53 4970.1001 14199.85
1066.59 4970.4502 14201.02
1070.1899 4968.6499 14204.67
1073.64 4966.1299 14195.52
1076.53 4965.6899 14200.34
1080.05 4961.25 14196.74
1083.42 4958.4302 14197.47
1087.05 4956.79 14199.47
1095.24 4962.2998 14200.1
1102.77 4958.02 14199.42
1105.8 4955.9502 14199.9
1109.24 4955.7002 14201.32
1112.49 4954.6299 14198.25
1116.47 4952.3398 14198.73
1120.72 4953.48 14198
1124.4 4952.0898 14196.5
1130.87 4947.6602 14192.75
1134.63 4946.6201 14194.4
1137.47 4941.6001 14191.04
1143.3199 4951.8101 14196.78
1146.1 4948.7002 14200.83
1149.21 4944.8398 14198.73
1152.34 4941.1299 14194.89
1155.97 4941.6899 14200.88
1158.7 4938.4199 14193.72
1161.38 4937.1001 14193.96
1170.6 4940.1602 14201.8
1173.8 4938.8799 14200.39
1176.3199 4934.77 14195.13
1182.17 4944.6001 14197.71
1185.6801 4940.4302 14197.27
1188.71 4938.4502 14196.01
1193.39 4941.2002 14197.95
1198.21 4932.1299 14202.29
1203.85 4938.8398 14196.3
1207.1899 4936.0698 14195.28
1210.1 4933.6099 14192.7
1213.59 4935.5801 14198.2
1217.36 4932.54 14198.93
1221.59 4933.4199 14199.85
1224.67 4929.6499 14196.01
1227.6899 4927.6802 14194.84
1230.36 4926.3198 14201.56
1234.67 4923.5 14198.98
1239.8101 4927.98 14195.28
1243.26 4925.7002 14195.77
1246.0601 4922.8799 14196.5
1248.74 4919.5801 14195.82
1252.6 4918.9702 14198.98
1256.51 4916.5601 14199.47
1259.72 4915.3701 14196.3
1262.47 4914.3501 14199.7
1273.5 4923.9902 14203.45
1046.65 4984.6001 14195.95
1049.14 4977.4702 14195.08
1054.8 4985.3501 14198.38
1058.26 4982.8398 14195.71
1061.3101 4983.0898 14200.28
1064.77 4980.5801 14197.61
1068.99 4981.6201 14198.63
1071.95 4976.79 14193.62
1076.23 4978.1201 14197.61
1079.13 4977.6802 14202.43
1082.7 4973.4102 14197.17
1085.49 4967.8999 14192.41
1089.46 4967.7598 14198.63
1094.4301 4974.5098 14194.29
1097.88 4974.2798 14202.18
1100.77 4969.2598 14198.83
1105.1 4968.48 14197.17
1109.8 4971.6201 14195.71
1113.25 4971.3701 14197.12
1115.35 4965.1499 14194.35
1120.24 4969.1001 14197.36
1123.08 4963.9302 14195.76
1127 4963.5601 14197.17
1130.29 4962.6299 14198.83
1134.89 4965.25 14195.95
1137.85 4958.46 14196.49
1140.45 4954.5601 14196.05
1146.2 4962.1299 14194.54
1148.64 4959.6699 14200.09
1155.35 4954.0498 14199.81
1159.27 4953.6899 14201.31
1161.97 4952.3799 14201.55
1164.46 4950.2002 14197.22
1169.36 4949.73 14196.98
1173.0699 4950.5898 14199.56
1176.87 4949.6899 14199.56
1179.29 4947.21 14198.63
1184.9399 4956.1699 14196.63
1191.1 4948.3701 14192.35
1194.66 4946.48 14196
1197.4301 4945.46 14199.32
1200.5 4941.5801 14197.22
1206.51 4949.7402 14195.46
1210.1 4947.98 14197.36
1213.26 4946.5098 14197.61
1216.51 4947.4902 14200.28
1220.29 4944.4502 14201.01
1223.92 4942.8398 14194.78
1227.17 4939.73 14190.7
1230.78 4940.0698 14198.34
1233.0601 4935.1299 14195.08
1237.4399 4934.5498 14196.49
1243.1 4941.0498 14198.63
1246.4301 4938.25 14197.61
1248.8199 4933.79 14195.76
1255.63 4930.8501 14201.07
1259.04 4926.4702 14195.81
1263.11 4926.6401 14196.98
1265.09 4922.6099 14191.72
1269.6801 4924.7798 14198.63
1275.67 4932.3701 14195.46
1279.97 4931.4399 14193.8
1290.28 4928.3901 14197.12
1042.47 4998.0098 14198.03
1044.6 4993.8901 14194.43
1047.98 4990.9502 14196.92
1051.78 4989.9702 14198.57
1061.27 4997.04 14201.86
1067.5601 4993.6099 14202.6
1071.35 4992.6001 14197.78
1078.61 4989.1201 14196.86
1081.1899 4987.1699 14197.35
1085.3101 4985.3999 14199.25
1088 4979.3901 14193.08
1092.67 4980.1299 14202.13
1097.55 4986.3799 14196.37
1100.5601 4984.1499 14198.52
1103.35 4978.6201 14193.75
1107.42 4978.9399 14194.92
1110.84 4976.2598 14194
1114.51 4977.0298 14198.33
1117.92 4976.5898 14194.92
1121.78 4975.9199 14199.74
1126.27 4975.7798 14197.84
1129.97 4974.4199 14196.43
1132.83 4973.77 14196.43
1136.34 4971.5698 14196.92
1141.8101 4975.7402 14196.61
1146.09 4976.8501 14195.88
1148.85 4973.5898 14195.2
1151.21 4970.77 14197.59
1155.76 4973.04 14198.03
1158.3 4964.5498 14195.9
1161.72 4964.1299 14199.06
1164.78 4962.2002 14197.89
1167.28 4960.02 14193.56
1171.59 4959.1699 14191.91
1179.23 4959.6201 14195.9
1188.27 4967.9902 14198.7
1190.9301 4962.2798 14195.69
1194.33 4959.6899 14193.02
1197.3 4957.3901 14195.17
1201.36 4961.6899 14196.61
1203.3101 4953.1299 14196.14
1209.66 4962.6802 14200.45
1212.77 4958.9199 14196.61
1216.8199 4958.9702 14199.44
1219.1801 4956.27 14193.7
1223.22 4954.25 14197.35
1226.99 4955.2402 14198.27
1230.48 4951.02 14191.36
1234.14 4951.54 14197.35
1237.6 4953.2998 14198.03
1240.55 4946.9399 14199.99
1246.1899 4951.3301 14196.37
1249.53 4948.5601 14195.45
1255.86 4947.6602 14195.2
1258.79 4941.29 14197.16
1262.2 4938.8398 14199.3
1266.2 4938.6899 14197.41
1272.91 4937.3101 14200.47
1279.22 4944.1299 14197.54
1283.3101 4944.29 14198.7
1286.33 4940.3501 14196.61
1288.7 4937.7998 14195.69
1291.49 4932.9902 14195.41
1295.88 4932.3999 14196.92
1304.8 4937.4399 14197.54
1307.11 4934.71 14198.27
1041.47 5010.04 14193.86
1044.87 5009.5298 14198.68
1050.29 5001.9302 14196.07
1055.4301 5007.3198 14198.68
1060.36 5009.2598 14202.51
1066.36 5006.77 14201.35
1070.17 5003.4902 14198.92
1074.04 5005.1299 14201.35
1077.16 4998.6602 14192.02
1080.98 5000.0898 14196.01
1083.87 4997.21 14192.02
1091.3199 4992.2798 14197.97
1094.53 4988.6201 14194.22
1100.08 4997.8701 14197.02
1106.38 4992.29 14198.5
1109.98 4990.4199 14195.58
1114 4990.4199 14200.15
1116.75 4986.9902 14194.66
1120.61 4988.5601 14196.99
1124.51 4985.77 14196.07
1128.5601 4985.9102 14192.51
1135.21 4984.2202 14194.17
1138.84 4982.5098 14196.07
1143.37 4982.5498 14198.99
1148.6 4987.79 14195.02
1151.53 4985.1899 14194.11
1153.75 4981.7002 14196.74
1157.23 4979.3501 14198.99
1160.97 4976.02 14196.55
1163.9301 4973.5801 14193.98
1167.7 4974.6401 14201.37
1170.4399 4973.48 14199.96
1174.42 4971.1201 14193.98
1178.86 4972.8901 14199.47
1181.72 4970.0898 14193.73
1184.62 4969.5601 14198.46
1190.77 4978.4502 14196.53
1197.3199 4972.1099 14196.5
1200.0601 4968.8301 14195.82
1202.6 4966.8101 14196.31
1206.09 4964.5698 14196.8
1215.91 4969.7002 14195.76
1219.01 4967.8999 14192.94
1221.87 4967.1899 14192.94
1226.04 4965.6699 14198
1229.54 4963.52 14190.27
1233.5601 4963.4199 14194.84
1244.96 4962.5098 14195.76
1249.0601 4962.7402 14197.02
1252.4 4959.9302 14196.01
1254.5 4956.2402 14193.92
1257.9301 4953.79 14196.07
1263 4957.7998 14197.51
1264.47 4947.7202 14192.72
1275.21 4946.2202 14193.98
1282.0699 4955.1602 14195.02
1286.14 4955.1899 14197.94
1288.9 4950.2202 14192.94
1291.8 4949.6699 14197.76
1295.46 4946.2402 14201.81
1298.86 4943.7402 14197.48
1302.1 4940.6401 14199.96
1308.0699 4949.8301 14201.1
1309.6 4944.0801 14193.19
1314.22 4944.29 14199.17
1318.36 4944.6001 14198.68
1324.3 4942.1001 14194.11
1044.39 5024.0898 14201.65
1047.96 5021.9502 14202.14
1050.12 5017.8501 14198.65
1053.51 5014.8701 14201.04
1056.3101 5011.48 14195.55
1068.59 5017.2598 14199.07
1076.77 5015.5098 14199.07
1079.63 5010.1201 14192.57
1083.95 5011.4902 14196.65
1090.6899 5007.79 14199.14
1094.89 5008.5898 14195.24
1097.5 5002.1299 14200.61
1102.53 5009 14194.5
1105.5601 5006.77 14196.65
1108.7 5002.7598 14196.22
1113.24 5002.8301 14199.14
1116.33 5000.8799 14197.88
1119.58 4999.6401 14196.47
1123.1899 5000.04 14197.64
1127.21 4997.7402 14198.13
1131.49 4998.8701 14197.39
1134.75 4995.4902 14190.24
1138.65 4997.1099 14199.14
1141.71 4992.8501 14193.8
1146.01 4994.02 14199.63
1154.0601 4996.1602 14193.34
1156.76 4992.5601 14195.98
1160.24 4990.1802 14198.13
1164.88 4992.77 14195.24
1166.6 4985.0098 14194.53
1169.79 4983.5601 14194.78
1172.54 4982.3901 14193.37
1177.24 4983.0601 14196.04
1182.95 4990.1299 14199.57
1186.1801 4988.8398 14198.16
1187.59 4979.9102 14196.28
1193.26 4988.8701 14194.26
1196.8101 4984.6899 14193.83
1199.87 4982.7002 14192.57
1203.67 4981.6699 14200.8
1205.73 4977.6499 14195.55
1208.97 4974.3799 14193.12
1218.75 4981.2998 14194.75
1221.9399 4979.8198 14195
1224.92 4979.6099 14196.41
1229.14 4978.25 14199.81
1233.17 4978.1299 14197.91
1236.4 4974.8398 14195.49
1239.83 4974.3701 14198.65
1241.52 4968.9702 14193.8
1246.38 4968.1499 14196.96
1252.0601 4974.6401 14199.07
1255.42 4971.8701 14198.16
1257.87 4967.5298 14194.57
1261.08 4966.21 14199.63
1264.59 4964.0698 14198.37
1268.37 4961 14199.11
1273.65 4967.75 14199.57
1274.6801 4959.9399 14200.61
1278.36 4956.48 14191.71
1284.89 4966.0601 14194.26
1289.3 4965.4399 14195.67
1291.86 4961.6099 14193.58
1294.9 4961.5498 14199.81
1298.36 4957.2998 14199.39
1301.85 4955.1201 14198.13
1304.83 4951.0098 14197.7
1310.8101 4960.1899 14198.83
1313.52 4956.98 14196.41
1317.51 4956.6499 14202.63
1321.47 4954.3398 14195
1324.45 4954.0698 14196.41
1328.35 4955.3501 14200.49
1330.92 4951.6299 14196.65
1334.76 4950.77 14195
1046.26 5033.0801 14195.14
1050.3 5033.1401 14199.71
1052.63 5029.8701 14200.7
1055.4 5023.8501 14194.44
1059.22 5022.8999 14196.19
1064.8 5030.2402 14197.96
1068.55 5028.9199 14196.55
1074.91 5025.6499 14195.63
1078.8 5024.9902 14193.97
1082.4399 5023.1602 14197.53
1086.25 5022.1299 14192.71
1089.51 5023.23 14201.86
1092.75 5017.23 14193.95
1095.9399 5013.4102 14191.86
1099.83 5012.77 14196.68
1104.95 5020 14193.73
1107.76 5016.73 14192.96
1111.58 5015.7798 14201.19
1115.9399 5014.9502 14199.44
1119.27 5011.77 14197.11
1122.15 5011.1201 14197.11
1126.25 5011.4199 14198.27
1129.58 5008.25 14195.94
1133.86 5009.3599 14195.21
1140.79 5006.5298 14193.95
1144.48 5004.9902 14194.19
1148.65 5003.3501 14194.44
1151.86 5001.9399 14201.16
1159.0601 5002.5 14192.29
1162.6801 5000.6602 14195.94
1166.21 4998.4399 14196.43
1171.12 5002.1802 14194.71
1172.72 4996.04 14198.34
1175.12 4993.3501 14192.6
1181.67 4999.7002 14194.71
1184.33 4995.9302 14199.01
1188.16 4995.02 14199.01
1190.71 4993.0098 14199.5
1196.4 5001.9702 14197.46
1199.5601 4996.1401 14194.46
1202.63 4994.1401 14193.21
1208.66 4989.75 14195.94
1221.55 4992.73 14195.38
1224.98 4992.2402 14198.45
1228.15 4992.73 14199.71
1235.99 4989.5298 14198.45
1239.24 4986.27 14196.12
1244.98 4980.8101 14195.94
1248.98 4978.5498 14194.68
1254.4301 4984.0498 14193.97
1258.17 4982.75 14197.29
1260.88 4979.4302 14196.62
1263.85 4977.1099 14198.76
1267.25 4974.4902 14196.19
1271.03 4971.4102 14196.92
1275.4399 4972.75 14199.25
1277.7 4969.7002 14196.92
1281.42 4968.3599 14193.76
1287.97 4977.9502 14196.3
1297.95 4971.3101 14196.12
1301.0699 4967.6699 14197.11
1305.1899 4965.8999 14197.35
1313.73 4971.21 14196.3
1316.67 4968.8501 14198.45
1320.04 4966.1899 14195.88
1324.77 4966.7002 14198.45
1327.5601 4963.7998 14192.71
1331.53 4967.21 14202.53
1333.89 4962.6699 14194.22
1052.59 5044.1401 14198.83
1055.08 5041.5298 14199.57
1058.28 5037.5498 14199.15
1061.6801 5034.5498 14195.07
1068.08 5043.3599 14201.25
1071.21 5041.4399 14199.99
1073.54 5038.1201 14194.5
1077.15 5036.1299 14193.34
1080.9399 5034.9702 14190.27
1085.0601 5035.3398 14197.91
1089.0699 5035.1699 14197.67
1091.6801 5033.21 14198.16
1095.14 5028.2402 14193.17
1098.9 5026.9399 14198.23
1104.0699 5029.8101 14198.41
1108.1801 5032.3901 14197.17
1110.89 5028.6201 14195
1114.16 5025.1001 14195.99
1118.73 5027.48 14202.98
1122.17 5024.75 14201.97
1124.97 5021.4702 14194.82
1128.49 5021.3799 14194.58
1131.8199 5018.2002 14192.24
1137.17 5021.73 14198.65
1140.79 5019.8198 14195.74
1143.52 5018.5 14195.99
1146.88 5015.4702 14192
1151.4 5015.3198 14196.48
1160.0699 5019.9902 14197.42
1161.72 5013.9702 14192.92
1165.34 5012.1001 14196.48
1169.48 5010.29 14198.47
1172.4399 5007.8198 14195.81
1177.25 5013.1802 14198.41
1178.8 5006.8501 14197.22
1182.77 5004.3398 14192.99
1187.16 5005.75 14195.31
1190.76 5005.98 14198.23
1194.4301 5008.5898 14197
1199.62 5013.3101 14198.09
1205.86 5005.4702 14193.83
1208.86 5003.1699 14195.99
1211.55 5001.6899 14197.98
1216.0601 5003.5298 14195.25
1220.58 5005.3999 14192.6
1224.22 5003.6401 14194.5
1227.77 5001.54 14193.34
1230.9399 5001.9902 14194.5
1234.76 4998.9399 14195.25
1238.5699 4999.9702 14196.25
1242.3 4996.5498 14193.83
1245.62 4995.5498 14195.49
1247.96 4992.73 14197.98
1252.14 4991.1201 14196.48
1257.9399 4995.9702 14194.26
1261.7 4994.71 14197.67
1263.77 4990.8398 14197.24
1266.87 4989.02 14200.8
1270.11 4983.73 14190.99
1275.29 4988.0601 14195.49
1278.1 4983.1299 14196.97
1280.25 4979.5898 14193.23
1286.24 4987.04 14198.16
1291 4987.71 14192.6
1298.96 4986.9102 14200.24
1301.23 4983.8501 14197.91
1304.0601 4979.0601 14197.74
1307.95 4976.4199 14193.41
1311.3 4973.6499 14198.97
1316.8101 4980.96 14192.6
1319.28 4978.71 14194.75
1322.9301 4977.04 14195
1327.4 4976.5601 14194.75
1330.88 4976.1899 14196.25
1334.1801 4977.0698 14198.83
1337.47 4976.0098 14200.49
1055 5055.6699 14199.44
1057.55 5050.9199 14194.45
1060.7 5049.0898 14199.76
1064.3199 5047.0801 14198.51
1070.08 5052.8101 14196.03
1073.47 5052.0898 14196.03
1075.89 5049.1401 14193.71
1080.53 5049.5801 14199.69
1084.3199 5050.6899 14200.6
1087.91 5046.21 14197.03
1091.4399 5046.1499 14196.78
1094.4301 5043.5801 14195.86
1101.89 5038.3101 14198.75
1105.35 5035.6299 14197.84
1110.71 5043.8999 14197.78
1113.54 5040.6201 14197.03
1116.49 5035.6201 14193.78
1120.72 5036.4102 14196.36
1124.28 5034.23 14196.85
1127.4399 5032.48 14194.03
1131.22 5033.54 14194.95
1135.27 5031.2402 14195.44
1139.3101 5031.1899 14193.54
1143.51 5031.8101 14197.77
1145.79 5028.4702 14192.28
1149.73 5027.96 14195.44
1154.27 5027.8301 14200.01
1157.28 5023.25 14198.09
1162.49 5030.4302 14195.12
1164.65 5026.6099 14194.7
1172.0699 5021.3999 14195.93
1175.4 5020.4399 14197.59
1178.38 5017.9902 14195.02
1182.59 5022.9399 14196.11
1185.75 5016.96 14194.77
1190.11 5018.2002 14198.75
1193.36 5016.9102 14197.34
1195.6899 5013.8999 14195.02
1205.65 5019.3799 14197.03
1208.62 5016.9199 14194.45
1211.75 5015.1299 14198.01
1214.08 5012.1099 14195.69
1217.47 5009.3501 14194.77
1224.22 5018.2598 14197.54
1227.37 5014.46 14193.71
1230.98 5014.6401 14196.53
1237.46 5009.8799 14194.45
1241.63 5010.25 14193.96
1245.5601 5009.6299 14197.03
1248.34 5006.48 14194.7
1255.1 5000.8999 14192.77
1261.0699 5008.4199 14197.78
1264.45 5005.6001 14196.78
1266.66 5002.23 14197.77
1270.03 4999.4502 14196.85
1273.53 4997.1602 14197.34
1276.64 4993.3398 14193.51
1280.9399 4994.2002 14194.52
1284.79 4997.25 14194.7
1287.73 4992.8101 14197.59
1294.21 5000.1001 14196.03
1301.01 4994.77 14190.8
1304.0601 4994.7202 14197.03
1307.51 4990.3101 14198.26
1310.55 4986.2998 14189.7
1315.42 4989.27 14194.7
1320.08 4993.3301 14196.03
1322.3 4990.1001 14195.37
1326.4301 4988.2998 14195.62
1330.17 4986.9502 14192.55
1337.41 4989.1099 14199.19
1063.17 5058.4502 14194.55
1066.75 5058.6001 14199.12
1072.42 5063.8301 14195.23
1078.7 5062.3301 14196.89
1082.78 5060.0601 14197.38
1087.05 5061.0698 14198.29
1090.5 5058.23 14199.04
1094.42 5057.5601 14197.38
1096.8199 5054.5898 14195.06
1101.11 5053.3301 14198.37
1103.96 5047.7798 14193.63
1107.99 5047.6401 14199.86
1116.08 5052.1201 14197.63
1119.26 5048.1201 14197.21
1123.76 5047.8101 14196.96
1126.55 5044.3599 14191.48
1130.35 5045.4702 14198.87
1133.8101 5045.04 14195.55
1137.98 5043.23 14197.46
1142.29 5044.3398 14196.72
1146.13 5043.3101 14198.37
1149.28 5041.54 14195.55
1152.61 5038.29 14193.14
1156.4301 5037.2402 14194.79
1161.37 5041.0298 14199.54
1165.05 5041.54 14192.56
1167.79 5037.9702 14195.31
1170.84 5033.5601 14191.73
1174.75 5032.8701 14196.54
1178.2 5032.4102 14199.61
1180.83 5028.4302 14192.72
1188.22 5027.3901 14192.47
1192.71 5029.1699 14197.95
1195.84 5027.3301 14195.04
1198.9 5025.21 14195.54
1203.35 5028.9102 14195.55
1208.65 5031.8701 14200.54
1211.74 5029.8599 14199.29
1214.76 5025.46 14195.8
1216.6 5022.52 14193.38
1220.86 5021.1802 14196.79
1226.51 5027.6401 14192.32
1233.67 5025.5801 14195.73
1236.8101 5025.8599 14198.54
1244.33 5021.1499 14193.06
1248.28 5020.5698 14196.22
1251.48 5019.0698 14196.47
1258.09 5012.8198 14194.79
1263.6899 5018.8198 14195.48
1266.95 5015.5 14193.06
1269.8101 5012.6602 14193.81
1272.9301 5010.8701 14197.46
1276.61 5009.23 14197.71
1280.42 5006.1499 14198.45
1283.86 5005.5801 14195.04
1286.49 5003.8901 14198.7
1291.28 5004.5898 14199.61
1305.03 5010.21 14202.87
1307.04 5006.1201 14197.63
1310.24 5000.71 14196.05
1314.0699 4999.71 14196.05
1322.83 5003.73 14193.82
1325.67 5000.8599 14194.56
1329.59 5000.1802 14197.63
1334.52 5001.3701 14200.05
1065.7 5070.48 14196.55
1075.29 5077.4102 14201.55
1078.53 5073.4902 14192.91
1081.74 5074.25 14198.89
1084.91 5070.04 14193.66
1089.09 5070.54 14193.16
1092.77 5068.75 14196.82
1096.6801 5068.04 14195.07
1103.96 5066.3901 14203.29
1106.9301 5061.3301 14199.96
1110.29 5058.1099 14197.55
1115.8101 5067.04 14197.23
1118.39 5062.5898 14195.32
1121.62 5058.75 14193.24
1126.2 5058.7798 14196.06
1129.48 5055.21 14190.58
1132.84 5056.6001 14196.31
1137.1 5057.4302 14198.97
1140.34 5053.6899 14195.15
1145.12 5056.8501 14200.13
1148.89 5055.4702 14198.72
1151.89 5052.9902 14196.06
1155.46 5050.7798 14196.55
1159.95 5050.3198 14198.06
1164.74 5055.6299 14194.07
1170.45 5049.4302 14195.81
1173.86 5046.54 14196.55
1177.42 5044.3101 14197.05
1180.9 5041.7402 14194.48
1183.64 5040.3999 14194.73
1186.66 5040.21 14196.14
1195.4301 5040.6299 14198.56
1198.6899 5037.1499 14191.32
1201.4 5035.6699 14193.32
1207.6 5046.6602 14196.98
1210.95 5041.4302 14193.66
1214.66 5041.9902 14199.64
1217.52 5036.8799 14196.31
1219.85 5033.8599 14193.99
1223.76 5033.1299 14198.8
1229.4301 5039.5898 14194.32
1232.6 5035.8198 14190.59
1236.35 5036.4902 14194.82
1239.63 5037.3101 14199.14
1243.36 5033.75 14198.48
1254.2 5029.9702 14195.56
1256.5 5024.8301 14193.99
1261.22 5025.2798 14198.31
1266.4301 5029.71 14194.57
1269.96 5027.4199 14195.07
1272.83 5024.6001 14195.81
1275.3199 5020.2598 14192.33
1279.52 5020.6499 14198.31
1282.95 5016.04 14194.73
1287.27 5016.8701 14195.64
1290.08 5015.8398 14199.05
1294.09 5015.5098 14198.8
1298.66 5017.2798 14196.06
1304.62 5022.4502 14196.98
1306.95 5017.5698 14192
1309.84 5014.8701 14191.09
1313.39 5012.7402 14196.31
1317.41 5010.4502 14195.15
1319.8199 5005.9302 14193.32
1326.1 5016.1201 14197.23
1332.62 5011.5698 14198.23
1095.14 5079.73 14195.91
1099.21 5079.7202 14194
1102.0699 5078.7598 14197.31
1105.8 5074.8198 14195.24
1108.88 5070.2598 14193.32
1112.99 5068.1401 14192.16
1119.05 5079.46 14200.63
1121.6801 5075.1602 14197.06
1124.88 5071.1499 14196.65
1128.88 5070.79 14198.06
1132.5 5068.75 14196.9
1136.14 5069.0298 14199.81
1139.46 5067.8901 14196.65
1143.04 5065.6899 14197.15
1147.87 5066.6899 14196.4
1151.15 5065.4199 14194.99
1154.86 5066.0298 14200.97
1158.21 5062.77 14198.56
1161.99 5059.23 14191.42
1172.88 5059.9102 14193.58
1176.17 5056.48 14192.83
1179.86 5054.7798 14194.83
1183.7 5053.71 14196.49
1186.9399 5052.2598 14196.74
1189.96 5052.0698 14198.14
1194.12 5050.1699 14193.57
1198.3 5052.73 14198.8
1202.02 5051.1499 14199.05
1204.25 5047.6299 14195.33
1210.21 5055.4302 14190.34
1213.45 5051.8501 14191.34
1217.41 5051.29 14194.5
1220.54 5049.3701 14199.81
1222.99 5046.8101 14198.8
1225.8 5041.5098 14190.76
1232.88 5053.7402 14200.38
1236.0601 5049.9302 14196.57
1239.52 5047.3198 14194
1242.8 5048.1401 14198.32
1246.5699 5044.71 14195.91
1250.41 5045.6899 14196.81
1254.4301 5043.29 14197.31
1257.54 5041.2998 14196.15
1259.52 5036.9302 14194.33
1263.5699 5034.6499 14193.08
1270.0601 5042.0498 14198.07
1273.2 5038.2202 14194.25
1275.6 5035.52 14194.99
1278.09 5031.1499 14191.42
1282.65 5030.9199 14195.99
1286 5027.9502 14196.74
1290.3199 5028.7798 14197.65
1292.62 5025.7202 14195.33
1296.64 5025.3901 14195.08
1303.72 5034.8599 14197.57
1306.92 5031.2998 14190.34
1310.5699 5029.5098 14192.34
1313.48 5028.7998 14198.82
1316.12 5023.1401 14194.08
1320.28 5021.3501 14194.33
1323.4301 5017.7002 14195.33
1329.46 5026.8501 14196.32
1331.87 5024.27 14195.41
1112.03 5082.3398 14193.66
1115.74 5080.6602 14195.57
1121.36 5089.9302 14198.3
1124.46 5087.7202 14200.55
1127.4301 5082.6602 14197.23
1131.7 5083.4702 14199.79
1134.96 5079.7598 14196.07
1138.6 5080 14198.89
1142.04 5079.3999 14197.23
1146.24 5077.5801 14199.14
1150.36 5077.6899 14195.57
1154.48 5077.8101 14198.39
1160.64 5073.3901 14194.57
1164.98 5072.2598 14196.32
1167.67 5066.1201 14190.09
1173.5 5075.8701 14194.33
1175.53 5071.3599 14194.07
1179.3101 5070 14199.14
1183.26 5067.1499 14198.23
1186.15 5064.1499 14194.16
1189.4301 5062.8501 14192.75
1192.3 5062.0098 14194.41
1196.71 5061.1401 14192.75
1201.14 5062.5498 14195.07
1204.42 5061.2402 14193.66
1207.14 5059.7202 14195.57
1213.48 5069.1001 14194.98
1217.0601 5064.73 14196.23
1220.42 5063.77 14197.89
1222.85 5058.9199 14192.91
1225.3101 5056.3901 14192
1228.59 5052.96 14191.34
1239.1 5060.2598 14194.33
1242.45 5059.27 14195.98
1245.65 5059.71 14197.14
1249.4 5056.1699 14196.48
1253.35 5055.48 14193.07
1257.28 5054.7402 14197.89
1260.39 5052.7402 14196.73
1262.51 5048.8599 14196.32
1267.35 5047.6499 14196.32
1272.55 5051.9502 14194.33
1276.09 5049.6499 14194.83
1278.23 5045.9199 14192.66
1281.47 5042.4502 14192
1285.3 5041.3101 14193.66
1288.83 5039 14194.16
1292.86 5038.6699 14193.91
1295.42 5036.6099 14194.41
1299.45 5036.27 14194.16
1314.0699 5042.9102 14198.55
1315.66 5037.1602 14190.75
1319.72 5034.9199 14196.07
1323.13 5032.21 14193.41
1326.4301 5029.0601 14195.82
1332.38 5037.9102 14193.83
1334.76 5035.1699 14194.58
1118.38 5092.6802 14197.55
1129.98 5094.1699 14197.8
1134.75 5094.8701 14200.36
1137.41 5090.73 14195.14
1144.63 5090.8999 14197.8
1148.99 5089.75 14199.46
1153.08 5089.6899 14197.55
1156.86 5088.27 14196.05
1160.47 5088.3799 14200.61
1163.99 5085.8101 14198.05
1167.62 5083.7202 14196.8
1173.4399 5091.1499 14196.96
1176.15 5087.3301 14194.8
1181.88 5078.8198 14192.57
1185.9399 5078.6401 14198.8
1188.87 5075.79 14193.07
1195.16 5074.1499 14194.73
1199.58 5073.27 14193.07
1203.99 5074.52 14197.05
1207.15 5072.71 14194.23
1209.99 5069.5298 14191.82
1216.47 5081.5698 14198.36
1219.8199 5076.2202 14196.8
1226.22 5070.77 14194.89
1228.45 5069.3599 14196.8
1231.98 5064.7998 14193.33
1238.33 5073.9502 14194.3
1241.9 5071.6802 14194.8
1245.55 5071.8799 14197.71
1248.47 5071.1699 14197.71
1252.23 5067.6099 14197.05
1256.1899 5066.9199 14193.64
1260.17 5066.3501 14196.8
1263.11 5063.6401 14195.8
1265.11 5059.27 14193.98
1270.09 5058.5498 14195.39
1275.85 5065.0498 14197.46
1279.14 5061.71 14195.05
1281.38 5058.3501 14196.05
1284.8 5055.54 14195.14
1288.6 5054.27 14198.55
1292.63 5051.8301 14199.05
1295.66 5049.5898 14193.07
1301.91 5059.8198 14196.96
1309.23 5056.1201 14194.3
1314.16 5057.1899 14198.36
1316.64 5052.79 14194.8
1318.8101 5049.23 14191.07
1322.4399 5045.29 14193.73
1326.4399 5044.7798 14195.14
1329.4399 5040.46 14196.39
1338.25 5046.4102 14195.05
1143.52 5101.98 14197.11
1147.73 5102.4302 14196.61
1151.58 5101.2598 14200.02
1155.8 5101.71 14199.52
1159.47 5099.77 14196.61
1162.63 5097.8198 14195.45
1166.15 5095.2202 14192.79
1169.9 5093.6602 14193.04
1175.84 5101.6001 14194.6
1179.41 5099.21 14196.76
1181.5 5094.8799 14194.95
1185.0601 5092.4902 14197.11
1188.54 5089.75 14196.2
1192.17 5087.6699 14195.05
1194.8101 5085.7798 14193.8
1198.1 5086.6299 14198.11
1202.17 5084.21 14192.14
1206.47 5084.9902 14194.8
1210.12 5083.02 14191.89
1212.85 5081.5098 14193.8
1225.95 5086.71 14199.01
1229 5082.23 14195.45
1231.72 5080.7002 14197.36
1234.92 5076.8901 14193.55
1241.25 5085.9199 14196.26
1244.58 5082.6299 14193.95
1248.23 5082.7998 14196.76
1250.91 5081.0801 14193.95
1254.8101 5078.0298 14194.7
1258.9 5077.8799 14192.79
1262.63 5076.25 14193.04
1272.83 5069.4902 14194.54
1278.6 5075.9502 14196.51
1281.78 5072.1602 14192.79
1291.25 5064.6602 14196.2
1294.76 5060.1802 14190.98
1298.5 5060.6299 14190.48
1312.3199 5068.0498 14196.26
1319.48 5063.7002 14193.95
1322.01 5059.4702 14188.72
1325.6 5057.3599 14194.04
1330.05 5056.5601 14197.11
1338.54 5061.1802 14196.26
1341.41 5058.3198 14197.01
1161.85 5110.23 14194.25
1165.76 5111.54 14200.07
1169.37 5109.3198 14200.57
1173.3 5106.2202 14194.75
1181.75 5109.3101 14191.34
1184.16 5106.3799 14195.5
1187.62 5103.4702 14196.25
1191.1 5100.7002 14195.26
1195.34 5101.21 14201.33
1197.88 5096.6401 14192.94
1201.05 5096.96 14195.76
1205.73 5097.1299 14197.01
1209.0699 5095.9302 14193.85
1213.09 5095.5098 14195.26
1215.71 5093.48 14195.76
1221.47 5102.4702 14193.74
1225.73 5100.8301 14200.47
1228.95 5097.02 14196.66
1231.77 5093.7002 14196
1234.75 5093.21 14200.82
1237.83 5088.8501 14195.51
1243.92 5096.8799 14195.4
1247.63 5095.1201 14197.31
1251.29 5093.1499 14194.49
1254.47 5093.4399 14197.31
1257.74 5087.8101 14190.93
1262.25 5091.3799 14199.06
1269.09 5085.5298 14192.34
1271.1899 5081.4902 14193.6
1275.83 5081.4399 14196.51
1281.71 5086.27 14194.25
1285.28 5083.9702 14194.75
1287.7 5081.25 14195.5
1290.35 5077.3701 14193.35
1295.05 5077.5098 14201.07
1297.8199 5072.1099 14192.94
1302.04 5072.4399 14192.44
1304.88 5071.3701 14195.76
1308.6801 5070.02 14192.69
1315.67 5079 14193.74
1319.7 5078.4902 14195.15
1322.46 5075.1299 14194.49
1325.12 5071.3901 14190.68
1328.45 5068.23 14193.09
1332.78 5066.9302 14194.75
1335.97 5063.27 14195.76
1176.0699 5118.2598 14196.8
1186.95 5118.3799 14197.45
1190.05 5113.9199 14193.89
1194.15 5111.5698 14194.39
1197.1801 5109.0498 14191.74
1201.1801 5110.6899 14200.62
1203.52 5107.4302 14193.49
1208.45 5108.6099 14197.55
1212.27 5107.2998 14194.39
1215.59 5105.98 14192.99
1224.71 5113.8301 14194.28
1228 5110.25 14195.28
1231.76 5108.6499 14195.54
1234.41 5104.6299 14195.05
1237.53 5104.6499 14201.27
1240.62 5100.3198 14196.05
1247.75 5110.4399 14200
1251.09 5107.1201 14197.59
1254.23 5105.1099 14196.44
1256.79 5102.8398 14192.13
1264.83 5101.7998 14196.69
1268.95 5099.54 14195.54
1272.0699 5097.48 14194.29
1274.34 5094.1099 14195.3
1278.45 5091.8398 14194.14
1284.98 5099.2402 14199
1288.4301 5096.4302 14198.1
1290.6 5092.6899 14196.04
1293.74 5088.6802 14193.89
1300.74 5083.54 14193.49
1305.11 5084.3701 14194.39
1307.5601 5081.79 14193.49
1311.36 5080.4102 14190.33
1319.02 5091.9302 14198.5
1322.54 5089.4102 14194.28
1328.64 5084.8501 14196.94
1332.2 5080.5601 14196.55
1335.9301 5078.8799 14196.8
1345.0601 5083.8701 14197.35
1193.8101 5127.8799 14201.55
1196.72 5122.5498 14193.52
1200.24 5122.1001 14196.59
1203.28 5119.6099 14194.03
1206.1 5118.3799 14192.53
1210.92 5119.0498 14195.18
1215.28 5119.9502 14196.08
1218.97 5120.1802 14198.99
1221.46 5115.4399 14192.28
1227.98 5127.5 14198.77
1231.24 5121.5801 14195.72
1234.77 5121.1401 14198.88
1237.4399 5117.1499 14198.49
1239.97 5114.73 14195.83
1250.3 5120.8599 14197.62
1253.65 5117.54 14195.21
1256.79 5115.5298 14194.06
1259.9 5115.4702 14193.81
1264.04 5113.29 14199.13
1268.58 5114.8101 14199.78
1271.54 5109.9502 14193.16
1274.8 5108.4302 14193.41
1276.95 5104.5498 14193.02
1281.8101 5103.1602 14194.68
1287.22 5108.1299 14192.4
1290.9301 5106.3198 14194.31
1293.24 5103.0898 14193.67
1296.78 5100.6201 14195.83
1300.39 5098.46 14194.68
1303.89 5093.8101 14191.12
1308.04 5095.7998 14194.93
1310.63 5093.73 14195.44
1315.0699 5092.75 14193.78
1321.3199 5100.7998 14191.9
1325.99 5100.6699 14194.71
1329.0699 5098.48 14195.21
1331.39 5095.3799 14192.91
1335.0601 5091.4399 14195.58
1338.65 5089.25 14194.42
1342 5086.0898 14196.84
1347.98 5094.8999 14194.71
1206.38 5132.79 14197.12
1209.05 5130.9199 14195.96
1213.3 5129.1299 14189.74
1218 5131.4399 14196.61
1222.0601 5131.0098 14198.01
1224.08 5126.4102 14191.4
1236.79 5129.5 14190.78
1243.24 5126.0898 14196.36
1246.6899 5123.1401 14197.12
1256.46 5129.0098 14195.74
1259.61 5127 14194.58
1262.97 5127.9502 14197.14
1266.91 5124.8799 14197.9
1274.51 5121.9102 14195.09
1277.53 5119.3398 14192.44
1280.5601 5116.8901 14196.36
1284.85 5115.2798 14194.95
1290.53 5121.25 14195.48
1294.25 5119.4399 14197.39
1296.63 5114.4102 14194.19
1299.98 5113.23 14197.51
1303.17 5109.3599 14193.7
1307.38 5107.4502 14195.71
1310.98 5107.2402 14195.46
1316.74 5115.4302 14193.57
1318.01 5104.1499 14194.21
1324.6801 5113.77 14196.63
1328.83 5111.6099 14193.82
1332.05 5109.8999 14195.74
1334.87 5106.6802 14193.43
1337.78 5101.8198 14193.2
1342.99 5103.7598 14201.82
1344.6 5095.96 14193.05
1212.4 5142.9302 14196.13
1217 5142.54 14195.88
1224.4301 5140.9399 14194.22
1226.95 5138.3999 14193.32
1232.99 5148.4199 14194.08
1236.76 5144.5498 14196.75
1240.67 5143.4399 14198.41
1243.52 5140.1099 14197.77
1245.53 5135.5 14191.15
1249.27 5133.7202 14193.07
1255.39 5141.7202 14192.83
1259.14 5139.98 14194.84
1263.46 5140.54 14199.06
1265.78 5137.23 14191.93
1269.74 5136.3398 14198.41
1273.76 5135.6699 14195.09
1277.27 5132.98 14192.44
1280.65 5131.8501 14195.85
1283.04 5126.79 14192.56
1287.47 5125.6802 14192.56
1293.38 5130.5098 14190.28
1299.27 5124.8101 14191.8
1302.5 5123.1299 14193.71
1306.71 5121.1899 14195.62
1310.17 5118.3501 14194.73
1314.4399 5118.6699 14194.22
1327.24 5123.6499 14192.83
1332.1 5124.21 14195.48
1335.03 5121.3301 14196.24
1341.35 5115.4502 14197.77
1345.3199 5112.5898 14195.12
1239.15 5154.4702 14192.94
1243.1899 5153.8799 14196.01
1247.3199 5155.8398 14193.33
1248.8 5149.0098 14197.28
1252.1801 5145.71 14194.98
1258.1899 5153.2002 14193.33
1262.5699 5151.8398 14196.74
1266.15 5151.5 14198.15
1268.86 5149.7202 14195.25
1276.21 5145.5801 14191.29
1281 5145.8901 14197.25
1286.04 5138.7598 14194.47
1290.34 5137.1401 14193.07
1296.27 5141.9702 14190.78
1300.4 5141.7202 14197
1302.59 5137.9399 14194.86
1309.76 5133.1401 14197.54
1313.23 5130.3101 14196.64
1317.37 5130.1099 14194.72
1320.11 5128.54 14196.64
1324.09 5127.6802 14194.98
1248.8199 5162.0298 14195.86
1251.47 5159.9902 14196.37
1255.47 5157.0698 14195.48
1261.62 5165.0698 14195.23
1265.25 5162.7798 14195.74
1268.72 5161.9302 14195.74
1271.6801 5161.2002 14195.74
1275.65 5158.1099 14196.5
1279.9301 5158.4502 14195.99
1283.85 5157.3198 14197.65
1286.63 5153.7202 14192.19
1288.51 5148.6602 14190.66
1293.7 5148.4399 14193.47
1299.15 5153.3901 14191.17
1303.4301 5153.6899 14198.89
1305.37 5148.8799 14193.95
1310.02 5150.6401 14191.17
1312.98 5145.7598 14199.18
1316.38 5140.5898 14194.23
1274.13 5171.1001 14191.91
1278.36 5169.0801 14195.58
1282.8199 5170.0801 14194.81
1286.45 5167.77 14195.33
1289.62 5165.7002 14194.08
1293.72 5167.3599 14194.81
1298.1801 5166.2402 14194.81
1302.4301 5166.4199 14195.96
1305.79 5163.04 14193.57
1308.37 5158.6499 14190.13
1311.46 5156.2998 14192.29
1315.64 5156.2002 14196.86
1295.4301 5174.1699 14196.98
1299.63 5172.0298 14194.18
0 0 0 1 0 0 0 1 0 0 0 1 0 0 0 0 0 1322 1 0 0
