ply
format ascii 1.0
comment PCL generated
element vertex 397
property float x
property float y
property float z
element camera 1
property float view_px
property float view_py
property float view_pz
property float x_axisx
property float x_axisy
property float x_axisz
property float y_axisx
property float y_axisy
property float y_axisz
property float z_axisx
property float z_axisy
property float z_axisz
property float focal
property float scalex
property float scaley
property float centerx
property float centery
property int viewportx
property int viewporty
property float k1
property float k2
end_header
-1762.8199 9182.6299 14010.91
-1814.16 9169.6396 13989.06
-1800.71 9170.9199 13989.95
-1769.4301 9188.5195 13995.27
-1764.05 9189.04 13997.41
-1743.4301 9200.7197 14008.8
-1807.26 9171.7305 13968.37
-1801.1801 9173.3096 13971.84
-1796.45 9181.79 13974.23
-1782.62 9185.8496 13973.33
-1775.39 9186.2998 13992.24
-1769.88 9190.8604 13977.07
-1764.27 9194.9404 13984.37
-1750.54 9199.6602 13990.33
-1744.05 9203.9502 13991.93
-1738.0601 9206.1504 13994.95
-1732.75 9211.9697 13999.12
-1716.71 9214.1201 13997.88
-1808.71 9179.0703 13957.83
-1796.37 9181.3701 13963.44
-1789.72 9184.7598 13969.41
-1783.71 9191.5 13960.2
-1776.17 9190.3301 13976.62
-1770.98 9196.5703 13964.02
-1764.5601 9196.4502 13964.91
-1758.14 9201.1396 13969.98
-1750.1 9202.1602 13972.13
-1743.62 9206.5098 13973.8
-1737.62 9208.6602 13976.74
-1731.54 9210.3096 13974.61
-1724.62 9212.46 13975.85
-1717.46 9218.1602 13982.25
-1711.9301 9222.8203 13989
-1705.3 9221.6699 13986.96
-1791.3199 9192.9805 13960.18
-1784.79 9197.0303 13945.47
-1777.28 9196.04 13963.58
-1770.87 9200.7402 13948.41
-1766.29 9205.4902 13956.93
-1759.39 9207.6602 13958.18
-1751.03 9207.04 13957.83
-1744.38 9210.5195 13958.18
-1738.67 9214.21 13962
-1733.09 9218.5498 13965.36
-1725.38 9216.54 13960.3
-1712.37 9225.2002 13970.88
-1706.35 9227.3301 13973.82
-1699.0699 9227.54 13976.5
-1692.02 9229 13978.2
-1684.89 9235 13987.98
-1679.11 9238.4404 13990.02
-1673.55 9238.0801 13990.92
-1659.5 9241.2998 13990.47
-1652.54 9248.3896 13990.34
-1641.3 9252.0898 13992.83
-1620.28 9257.4102 14008.27
-1793.12 9202.2197 13940.97
-1786.21 9204.3398 13934.91
-1778.1801 9200.6904 13947.51
-1772.89 9211.2402 13941.21
-1766.9 9208.6602 13940.07
-1760.15 9211.6504 13942.56
-1752.27 9213.5498 13946.03
-1739.58 9219.0195 13947.62
-1725.25 9220.6904 13944.68
-1719.85 9231 13956.85
-1712.38 9230.1904 13956.5
-1706.79 9229.6904 13955.7
-1700.11 9233.1904 13963.36
-1692.76 9233.0098 13962.57
-1685.6 9238.8604 13970.65
-1674.13 9241.2803 13974.04
-1666.23 9243.0996 13977.52
-1660.53 9247.0195 13977.41
-1653.1801 9251.96 13984.17
-1647.23 9254.5596 13984.96
-1641.24 9251.71 13982.13
-1633.66 9255.4297 13984.17
-1615.3199 9265.6299 13981.35
-1609.42 9268.5801 13985.62
-1805.86 9201.8096 13926.7
-1794.14 9207.46 13937.38
-1787.23 9214.3496 13928.16
-1779.27 9206.3701 13934.46
-1773.49 9214.3896 13924.35
-1768.3 9215.9697 13929.51
-1761.39 9218.1504 13930.75
-1753.66 9220.8799 13935.47
-1746.97 9224.1904 13934.12
-1740.8101 9225.5303 13935.81
-1727.53 9232.8496 13939.97
-1721.23 9238.4004 13946.35
-1713.59 9236.7002 13944.68
-1708.14 9237.0303 13945.13
-1701.46 9240.54 13952.79
-1694.1 9240.3604 13952
-1686.48 9243.6797 13956.26
-1680.12 9243.9902 13955.02
-1674.98 9245.9404 13957.96
-1667.45 9249.8604 13954.46
-1660.51 9252.0098 13963.02
-1647.65 9256.9199 13966.84
-1642.51 9258.9102 13969.86
-1634.96 9262.7998 13973.59
-1627.66 9262.9502 13976.27
-1621.15 9267.6104 13968.39
-1615.99 9269.4805 13964.02
-1807.79 9211.6299 13919.95
-1795.0699 9212.25 13923
-1788.8199 9222.54 13918.92
-1781.14 9220.7998 13922.86
-1775.87 9226.75 13921.4
-1770.3101 9226.46 13922.3
-1762.95 9226.3398 13921.51
-1755.35 9229.7305 13925.78
-1748.52 9232.3799 13924.88
-1742.03 9232.0195 13924
-1735.96 9233.8398 13923.55
-1728.91 9240.2305 13929.48
-1721.8199 9241.5498 13929.48
-1715.26 9245.7305 13936.68
-1709.47 9244.1904 13932.87
-1702.51 9246.2197 13939.73
-1687.52 9249.3701 13943.2
-1676.01 9251.6299 13944.9
-1668.27 9254.46 13951.31
-1661.83 9259.3604 13952.44
-1654.76 9260.8604 13954.22
-1648.36 9260.9199 13951.2
-1642.9301 9266.4297 13959.28
-1635.23 9264.3301 13954.22
-1628.0699 9265.25 13958.06
-1621.23 9268.0303 13958.94
-1617.28 9276.8799 13953.52
-1610.64 9275.5996 13951.4
-1804.15 9221.1797 13914.1
-1797.64 9225.4199 13921.3
-1782.1899 9226.2002 13920.96
-1772.04 9235.4697 13914.3
-1764.96 9236.8203 13914.3
-1756.41 9235.3301 13912.64
-1751.17 9246.4004 13924.41
-1744.05 9242.7305 13918.57
-1738.25 9246.04 13918.91
-1731.21 9252.5498 13926.45
-1723.49 9250.5098 13921.39
-1715.96 9249.5195 13919.36
-1710.98 9252.3896 13923.62
-1703.55 9251.8896 13926.67
-1696.34 9257.54 13932.97
-1689.3101 9259.2305 13936.44
-1682.78 9258.6602 13933.87
-1677.34 9258.9697 13934.32
-1669.5699 9261.6299 13939.04
-1662.7 9264.2197 13938.13
-1655.9301 9267.3701 13942.4
-1650.38 9272.2695 13945.22
-1643.78 9271.2402 13944.88
-1635.9301 9268.3096 13938.59
-1629.85 9275.3896 13940.14
-1622.21 9273.6699 13945.79
-1618.41 9283.3496 13941.61
-1611.92 9282.9404 13940.82
-1798.9 9231.8896 13909.49
-1791.5699 9236.7197 13907.23
-1783.6 9233.5098 13910.38
-1778.45 9240.1602 13908.55
-1773.9301 9245.29 13907.54
-1765.95 9246.8203 13907.54
-1759.5601 9251.8701 13915.98
-1752.24 9252.0498 13911.35
-1745.71 9251.5098 13908.78
-1739.63 9253.3398 13908.33
-1732.42 9259.0303 13914.62
-1724.86 9257.8701 13910.9
-1718.1 9261.0098 13915.08
-1705.52 9262.5703 13921.14
-1697.0699 9261.5 13917.33
-1690.65 9266.5498 13925.86
-1683.05 9265.1396 13920.35
-1678.08 9268.1602 13926.31
-1671.34 9271.4902 13932.27
-1664.3199 9273.25 13930.12
-1656.64 9271.3301 13926.76
-1650.9399 9275.4199 13928.34
-1645.08 9278.5703 13934.3
-1637.97 9279.8301 13934.3
-1630.5 9279.1201 13935.65
-1624.2 9285.04 13939.81
-1619.84 9291.5596 13932.34
-1613.78 9293.6396 13935.28
-1606.3101 9292.9004 13936.64
-1598.21 9293.8496 13938.87
-1785.95 9245.6904 13905.73
-1780.86 9252.6904 13894.36
-1775.97 9255.9297 13902.01
-1761.11 9260.04 13906.72
-1753.78 9260.1602 13902.01
-1733.63 9265.4902 13902.8
-1719.77 9270.0195 13907.06
-1714.3101 9270.3604 13907.51
-1706.6801 9268.8701 13907.63
-1699.65 9275.5801 13916.94
-1692.42 9276.2305 13917.39
-1685.6 9279.1797 13919.87
-1680.33 9280.54 13923.34
-1672.21 9276.2803 13917.87
-1665.4399 9279.5195 13916.52
-1658.8101 9283.5 13922.02
-1652.26 9282.79 13917.84
-1645.79 9282.5801 13918.75
-1640.01 9291.4004 13930.09
-1631.92 9287.1602 13924.69
-1625.9301 9294.9199 13933.02
-1621.26 9299.71 13922.99
-1614.62 9298.4805 13920.96
-1599.1801 9299.4697 13925.71
-1749.26 9270.3301 13893.99
-1743.95 9276.3496 13899.82
-1735.95 9277.8604 13899.82
-1728.3199 9276.4697 13894.32
-1721.4399 9279.0195 13899.03
-1715.97 9279.3604 13899.49
-1709.26 9282.9004 13907.13
-1700.37 9279.5098 13901.3
-1693.75 9283.5303 13906.8
-1686.9301 9286.4805 13909.28
-1680.89 9283.6504 13906.46
-1673.83 9285.2998 13909.84
-1667.21 9289.3604 13909.73
-1660.73 9294.2402 13916.56
-1654.3 9294.29 13913.54
-1648.25 9296.46 13916.56
-1640.8199 9296.0098 13913.99
-1633.65 9297.0195 13917.91
-1626.92 9300.5801 13919.94
-1622.6899 9307.9102 13913.72
-1616.33 9308.3398 13914.17
-1607.63 9305.8701 13911.27
-1600.73 9308.5 13917.68
-1594.78 9311.29 13920.25
-1589.54 9312.96 13927.1
-1789.58 9264.4902 13890.93
-1785.61 9277.3203 13888.32
-1779.86 9276.21 13887.99
-1758.42 9284.6504 13894.27
-1752.0601 9285.1699 13894.73
-1746.28 9288.7197 13896.84
-1737.12 9284.1299 13886.29
-1730.04 9290.6602 13893.82
-1723.73 9291.3896 13896.05
-1717.6801 9293.5498 13898.98
-1710.6 9290.1904 13896.54
-1703.0601 9294.2002 13900.34
-1695.84 9295.0195 13902.49
-1688.5601 9295.4902 13901.25
-1682.63 9293.2598 13897.9
-1675.92 9296.8496 13905.62
-1669.29 9300.9199 13905.51
-1661.89 9300.7197 13904.71
-1656.0601 9304.1396 13906.75
-1649.1 9301.2305 13902.15
-1642.5601 9305.8701 13907.19
-1635.22 9305.9805 13909.79
-1628.2 9307.8896 13909.34
-1624.22 9316.71 13903.91
-1616.85 9316.6299 13904.81
-1609.91 9319.0996 13909.52
-1602.86 9320.9102 13914.69
-1596.17 9319.4404 13910.89
-1591.05 9321.7695 13917.28
-1774.21 9290.0898 13885
-1767.15 9291.7998 13888.38
-1760.12 9293.6299 13886.23
-1753.5699 9293.1504 13883.75
-1747.77 9296.6396 13885.78
-1740.0601 9299.8604 13888.34
-1732.5 9303.8496 13892.06
-1725.83 9302.7002 13890.04
-1719.46 9303.2002 13890.49
-1712.73 9301.7305 13892.31
-1705.1801 9305.75 13896.11
-1697.34 9303.1904 13893.21
-1690.66 9307.04 13897.02
-1684.87 9305.6504 13894.9
-1677.65 9306.46 13897.05
-1671.2 9311.5996 13899.94
-1663.36 9314.0996 13902.96
-1656.62 9312.4902 13897.46
-1651.59 9315.2803 13901.64
-1644.3 9315.71 13900.4
-1637.26 9317.5498 13905.56
-1629.49 9315.25 13898.82
-1625.63 9330.0898 13902.14
-1619.26 9330.5195 13902.6
-1611.76 9329.79 13903.96
-1604.12 9328.2197 13904.08
-1598.16 9331.0098 13906.65
-1591.87 9326.5898 13902.96
-1586.23 9336.71 13913.39
-1769.5 9304.1504 13885.38
-1763.1 9309.3701 13888.27
-1743 9315.5498 13890.29
-1734.49 9314.5596 13886.58
-1728.59 9317.5596 13890.75
-1721.75 9315.5596 13887.48
-1715.47 9316.5898 13893.02
-1706.51 9313.0195 13885.5
-1699.59 9315.5703 13890.21
-1693.02 9320.0195 13893.48
-1687.27 9318.8604 13893.14
-1680.03 9319.6699 13895.28
-1673.28 9323.1602 13895.7
-1664.51 9320.5596 13891.11
-1659.09 9326.3604 13895.25
-1653.49 9326.0098 13896.15
-1644.85 9324.0498 13891.11
-1638.99 9327.3896 13898.75
-1632.21 9330.79 13899.08
-1627.35 9339.9404 13895.33
-1621.12 9341.2598 13897.11
-1613.76 9341.3604 13899.71
-1605.8101 9338.0703 13897.28
-1599.6899 9339.9697 13898.51
-1594.27 9340.6602 13902.43
-1587.1899 9342.3496 13900.29
-1745.3101 9327.9102 13887.27
-1730.73 9329.0898 13886.49
-1724.34 9329.5996 13886.94
-1717.24 9326.2305 13884.51
-1709.08 9327.0596 13884.97
-1700.76 9327.04 13884.18
-1695.12 9331.5596 13889.22
-1689.66 9332.0703 13891.36
-1681.8 9329.5 13888.47
-1674.88 9332.0996 13887.56
-1667.3101 9336.2695 13893.05
-1660.84 9336.2002 13888.43
-1655.53 9337.5098 13891.82
-1647.78 9340.6602 13894.38
-1639.96 9338.2305 13893.18
-1633.9301 9340.6396 13892.27
-1628.92 9348.9404 13887.27
-1622.67 9350.21 13888.96
-1615.16 9349.4805 13890.33
-1607.62 9348.5703 13890
-1601.64 9351.3701 13892.56
-1596.09 9351.3398 13896.85
-1588.86 9352.21 13893.46
-1582.9399 9355.3496 13899.42
-1719.1 9341.3203 13885.28
-1711.5 9340.2803 13883.17
-1703.48 9341.9199 13884.87
-1691.59 9342.7305 13885.78
-1684.03 9341.8799 13885.45
-1677.22 9345.1396 13884.08
-1669.64 9349.3096 13889.57
-1663.1899 9349.4199 13886.64
-1657.42 9348.1699 13886.23
-1649.66 9351.3203 13888.79
-1642.11 9350.4404 13888.46
-1636.39 9354.7002 13891.72
-1631.67 9364.7305 13889.28
-1624.97 9363.4404 13887.17
-1617.27 9361.7002 13885.61
-1609.75 9360.9805 13886.97
-1597.92 9362.0195 13891.27
-1590.96 9364.5596 13890.36
-1584.74 9366.04 13893.83
-1576.7 9367.6504 13889.9
-1686.5699 9355.9297 13884.89
-1679.74 9359.1904 13883.52
-1671.71 9360.8701 13885.3
-1665.6899 9363.4805 13886.08
-1659.74 9361.2197 13882.74
-1652.26 9366.04 13887.77
-1644.4301 9363.6699 13886.67
-1638.5601 9367.0898 13888.69
-1634.39 9380.3496 13889.57
-1627.12 9375.8398 13884.13
-1619.86 9376.6602 13886.36
-1612.17 9375.0498 13886.41
-1605.74 9375.2998 13885.17
-1593.47 9379.3496 13889.42
-1586.41 9375.8799 13886.99
-1646.9 9377.7305 13886.1
-1639.98 9375.2598 13879.37
-1629.6899 9390.6201 13883.18
-1608.4399 9396.5 13883.5
-1602.41 9388.3301 13885.96
-1596.01 9394.2695 13890.08
-1588.51 9388.29 13883.95
-1581.17 9394.2002 13886.37
-1575.26 9397.5898 13888.39
-1569.17 9399.96 13887.47
-1561.46 9398.1699 13885.91
-1548.86 9411.5996 13883.68
0 0 0 1 0 0 0 1 0 0 0 1 0 0 0 0 0 397 1 0 0
