ply
format ascii 1.0
comment PCL generated
element vertex 276
property float x
property float y
property float z
element camera 1
property float view_px
property float view_py
property float view_pz
property float x_axisx
property float x_axisy
property float x_axisz
property float y_axisx
property float y_axisy
property float y_axisz
property float z_axisx
property float z_axisy
property float z_axisz
property float focal
property float scalex
property float scaley
property float centerx
property float centery
property int viewportx
property int viewporty
property float k1
property float k2
end_header
-1973.58 8690.1396 14115.81
-1966.76 8690.9902 14116.24
-1961.0601 8696.7598 14126.13
-1955.36 8694.8301 14122.67
-1949.04 8697.8896 14125.2
-1935.91 8701.8203 14128.25
-1905.47 8718.6602 14145.43
-1880.92 8730.6504 14146.76
-1986.87 8686.9297 14114.03
-1980.7 8690.6104 14114.52
-1973.47 8689.6699 14092.58
-1967.92 8696.0996 14102.05
-1960.6 8694.7305 14100.36
-1956.6899 8700.7197 14109.75
-1949.99 8702.0996 14108.05
-1942.72 8704.8604 14112.8
-1936.85 8706.04 14111.1
-1931.3101 8712.6797 14123.97
-1926.5699 8714.9902 14121.41
-1918.9 8715.9902 14121.84
-1911.91 8720.04 14125.73
-1906.5699 8723.6699 14129.54
-1901.09 8726.6904 14133.85
-1894.49 8728.5703 14130.03
-1888.3101 8732.4102 14142.92
-1875.84 8739.6299 14136.44
-1871.02 8741.6699 14139.49
-1863.86 8740.9502 14138.99
-1857.5 8744 14141.61
-1986.59 8685.7197 14089.61
-1979.98 8687.4805 14075.03
-1967.79 8695.5303 14077.21
-1960.49 8694.2402 14077.13
-1956.74 8700.9502 14086.17
-1950.4301 8704.0596 14088.79
-1942.63 8704.4199 14089.65
-1937.33 8712.0996 14098.18
-1931.1801 8712.0801 14099.04
-1924.58 8709.9404 14090.49
-1919.15 8717.1299 14101.23
-1912.16 8721.1797 14105.11
-1904.25 8717.0596 14096.07
-1900.65 8724.6504 14108.08
-1894.45 8728.3896 14119.26
-1887.87 8730.3799 14117.14
-1883.04 8740.4697 14138.63
-1875.75 8739.21 14113.28
-1869.4 8738.2002 14111.09
-1864.26 8742.8203 14118.02
-1857.74 8745.1504 14120.99
-1852.08 8751.5098 14130.45
-1845 8751.1797 14126.14
-1833.11 8757.1396 14132.99
-1821.77 8765.79 14138.21
-1810 8768.2305 14138.21
-1973.87 8691.4404 14071.55
-1942.87 8705.5303 14069.04
-1936.6899 8709.2402 14071.15
-1930.73 8710.0596 14073.36
-1925.67 8714.9004 14074.61
-1919.37 8718.1201 14078.92
-1911.71 8719.1104 14079.35
-1904.85 8719.79 14078.08
-1900.89 8725.7695 14087.46
-1893.11 8722.2305 14085.38
-1889.5 8737.8896 14106.82
-1881.39 8732.8398 14103.82
-1875.48 8737.9404 14088.78
-1868.96 8736.1201 14085.32
-1863.48 8743.2803 14096.05
-1857.3 8743.0801 14095.21
-1850.29 8747.2197 14100.79
-1844.73 8749.9102 14101.63
-1839.9301 8752.0498 14106.37
-1833.85 8760.6904 14116.25
-1826.36 8758.4102 14113.31
-1820.16 8762.29 14109.81
-1816.03 8767.7402 14121.4
-1808.91 8762.9697 14107.27
-1803.78 8772.0898 14125.71
-1797.11 8773.7695 14129.19
-1791.87 8778.1699 14134.35
-1785.67 8777.8701 14133.42
-1780.92 8784.6797 14142.46
-1774.95 8785.5 14146.37
-1761.41 8787.9199 14142.89
-1749.7 8790.7002 14139.07
-1742.73 8795.29 14142.52
-1919.61 8719.21 14058.32
-1912.12 8720.9902 14060.01
-1906.3101 8726.4805 14066.51
-1899.95 8725.4805 14064.32
-1894.22 8727.3096 14071.19
-1888.88 8735.0195 14079.79
-1881.21 8736.0703 14063.94
-1875.89 8739.8701 14069.52
-1863.04 8741.2402 14070.37
-1857.72 8745.0195 14075.95
-1851.01 8750.6104 14082.37
-1845.45 8753.2998 14083.21
-1841.34 8758.7695 14094.79
-1833.25 8757.8203 14089.21
-1827.4 8763.3896 14097.41
-1820.89 8765.8096 14093.07
-1816.6 8770.4902 14103.39
-1810.96 8772.9004 14100.84
-1804.67 8776.4199 14110.24
-1796.85 8772.4805 14104.68
-1790.11 8773.8604 14104.68
-1786.24 8780.6299 14115.41
-1780.3199 8781.7002 14113.72
-1773.67 8783.4902 14118.89
-1768.54 8792.8301 14131.72
-1761.97 8790.6904 14124.88
-1750.5699 8795.04 14123.59
-1744.0601 8802 14130.84
-1736.99 8801.7598 14128.3
-1730.77 8805.75 14135.58
-1726.0699 8808.6201 14141.59
-1719.09 8808.79 14144.24
-1711.6 8810.8701 14125.72
-1695.17 8821.1504 14141.19
-1688.5601 8823.2402 14142.46
-1681.89 8829.6602 14151.92
-1674.45 8827.4404 14143.29
-1663.0601 8832.0996 14147.18
-1841.4 8763.25 14079.32
-1832.98 8756.54 14064.8
-1827.79 8765.2695 14078.06
-1820.63 8764.5303 14068.66
-1815.5 8765.1699 14072.48
-1809.84 8767.46 14068.23
-1804.08 8773.5303 14083.21
-1796.26 8769.5898 14077.65
-1790.67 8776.5898 14086.68
-1785.9399 8779.2002 14089.21
-1780.87 8784.4404 14095.71
-1774.7 8788.5996 14104.68
-1768.9301 8794.7998 14112.44
-1761.51 8792.7695 14105.52
-1751.4301 8799.3701 14108.11
-1743.9399 8801.4102 14105.98
-1737.6899 8805.2998 14111.56
-1730.33 8803.54 14108.11
-1726.92 8812.96 14126.11
-1720.22 8814.5898 14129.59
-1706.02 8818.2803 14123.55
-1695.52 8822.9404 14120.13
-1690.13 8831.46 14131.68
-1682.25 8831.5898 14132.55
-1675.28 8831.8301 14127.89
-1670.14 8837.0898 14136
-1665.8199 8846.7695 14146.69
-1657.58 8844.9805 14141.55
-1651.7 8851.1104 14149.31
-1826.6801 8759.9297 14047.16
-1791.21 8779.25 14068.6
-1786 8779.4902 14067.33
-1780.76 8783.9004 14072.48
-1774.27 8786.4805 14078.91
-1768.15 8790.9297 14082.36
-1761.73 8793.8604 14084.89
-1756.9399 8796.2002 14084.03
-1751.1 8802.1299 14088.4
-1743.04 8796.8701 14076.33
-1737.91 8806.3896 14090.93
-1730.71 8805.4805 14088.83
-1726.2 8809.2803 14097.8
-1719.03 8808.4805 14097.4
-1712.54 8815.71 14099.12
-1705.66 8816.3896 14108.54
-1700.17 8819.7402 14101.65
-1694.64 8818.4004 14090.47
-1689.04 8830.3604 14107.25
-1682.9301 8835.1299 14115.79
-1677.01 8840.9697 14120.07
-1669.59 8834.1904 14108.95
-1664.67 8840.6504 14114.5
-1657.49 8844.5195 14118.38
-1649.51 8839.3398 14108.09
-1644.55 8850.4004 14125.22
-1774.33 8786.7598 14057.04
-1757.48 8798.9004 14066.03
-1750.51 8799.1396 14061.29
-1743.5699 8799.5596 14058.33
-1736.8 8805.2002 14066.43
-1730.76 8805.71 14066.86
-1725.91 8807.7998 14071.6
-1719.72 8812 14080.64
-1712.66 8816.29 14089.61
-1706.1899 8819.1104 14090.53
-1695.9301 8825.1201 14078.87
-1688.3199 8826.5801 14078.87
-1681.76 8828.9805 14083.61
-1676.9 8840.3398 14095.21
-1669.64 8834.4805 14087.06
-1665.64 8845.8096 14100.35
-1657.4 8844.0195 14095.21
-1651.37 8849.3096 14101.62
-1644.6 8850.7002 14103.32
-1639.6899 8852.6201 14106.36
-1632.85 8853.5898 14111.88
-1625.66 8857.4297 14115.76
-1619.65 8863 14125.65
-1613.27 8866.5498 14127.83
-1608.08 8866.9297 14129.96
-1600.89 8866.0498 14129.55
-1594.76 8870.9805 14132.49
-1726.59 8811.2803 14054.86
-1718.97 8808.2002 14052.27
-1712.99 8818.0195 14068.56
-1707.49 8825.8301 14078.92
-1664.62 8840.4199 14069.44
-1656.99 8841.8496 14069.44
-1651.5699 8850.3799 14080.99
-1644.05 8847.75 14076.28
-1639.74 8852.9004 14084.46
-1633.95 8859.54 14099
-1626.01 8859.3604 14096.47
-1619.5601 8862.5 14102.48
-1613.76 8869.2305 14109.72
-1607.6899 8864.7998 14104.17
-1600.92 8866.1699 14105.86
-1594.49 8869.5098 14106.27
-1588.59 8875.7305 14115.72
-1582.47 8875.8701 14112.76
-1639.78 8853.0996 14062.49
-1632.9301 8854 14066.4
-1625.73 8857.8496 14070.27
-1618.99 8859.3496 14073.66
-1612.34 8861.4404 14075.01
-1608.47 8869.1104 14088.67
-1601.55 8869.6797 14089.1
-1595.5601 8875.46 14093.38
-1588.64 8876.0303 14093.81
-1582.8 8877.7402 14093.38
-1578.6 8888.71 14110.57
-1570.63 8883.3896 14100.21
-1564.04 8885.8799 14106.73
-1558.48 8894.2197 14116.58
-1553.76 8897.4297 14102.37
-1547.6899 8897.9297 14104.5
-1540.63 8902.8203 14113.12
-1534.01 8905.2305 14119.56
-1527.34 8902.1699 14113.07
-1582.5699 8881.3896 14076.63
-1577.21 8880.8496 14075.79
-1570.53 8882.8496 14077.05
-1565.37 8893.4297 14096.37
-1557.67 8889.6104 14086.93
-1553.65 8896.8301 14079.13
-1546.4399 8895.7598 14077.03
-1539.6899 8897.3896 14082.21
-1533.35 8901.4102 14091.17
-1527.11 8900.8398 14088.64
-1522.34 8903.7695 14096.33
-1516.5699 8911.1504 14103.22
-1510.66 8912.5703 14108.3
-1503.45 8916.71 14108.35
-1497.71 8919.1904 14109.18
-1493.35 8924.6299 14113.45
-1558.26 8892.96 14068.47
-1533.8 8903.96 14071.45
-1527 8900.2305 14065.4
-1523.08 8908.0596 14080.83
-1516.05 8908.0996 14076.1
-1510.84 8913.6299 14087.66
-1503.48 8916.9102 14086.37
-1497.47 8917.79 14084.67
-1492.8101 8921.4502 14084.63
-1523.4 8909.9404 14061.54
-1516.2 8908.9805 14053.77
-1510.72 8912.9199 14062.8
-1503.38 8916.3496 14063.2
-1497.92 8920.46 14066.64
-1491.86 8921.0098 14061.47
0 0 0 1 0 0 0 1 0 0 0 1 0 0 0 0 0 276 1 0 0
