ply
format ascii 1.0
comment PCL generated
element vertex 87
property float x
property float y
property float z
element camera 1
property float view_px
property float view_py
property float view_pz
property float x_axisx
property float x_axisy
property float x_axisz
property float y_axisx
property float y_axisy
property float y_axisz
property float z_axisx
property float z_axisy
property float z_axisz
property float focal
property float scalex
property float scaley
property float centerx
property float centery
property int viewportx
property int viewporty
property float k1
property float k2
end_header
1285.38 4391.7998 14202.82
1288.37 4389.5098 14203.25
1291.55 4387.9199 14208.29
1267.8 4402.1001 14199.63
1274.23 4402.1899 14205.44
1282.9301 4394.3599 14198.99
1292.3 4402.9102 14211.57
1258.26 4418.3101 14200.17
1261.24 4417.5098 14204.99
1267.76 4414.6899 14202.14
1271.67 4415.52 14207.94
1280.58 4411.46 14203.57
1284.21 4409.75 14208.6
1228.51 4437.9702 14196.65
1234.61 4436.79 14198.17
1251.9301 4434.77 14197.29
1255.63 4433.27 14200.58
1259.05 4432.3599 14205.4
1262.52 4431.6602 14208.57
1264.05 4427.3301 14201.69
1267.3101 4425.9199 14200.26
1278.08 4425.0098 14204.41
1287.72 4421.8101 14212.53
1290.79 4419.7202 14211.32
1237.97 4448.8901 14202.08
1241.24 4445.7998 14197.93
1247.58 4442.1899 14201.76
1249.7 4439.8901 14199.04
1259.0699 4445.3799 14204.59
1262.48 4444.4399 14209.31
1265.0601 4440.5601 14202.3
1271.72 4439.6802 14209.98
1275.45 4439.8301 14211.28
1278.4 4437.2798 14208.55
1281.6899 4437.52 14209.75
1225 4463.5498 14200.18
1228.99 4464.6401 14204.34
1235.83 4462.75 14204.34
1238.46 4460.6099 14204.78
1241.26 4459.0601 14200.18
1244.24 4456.5498 14197.55
1248.92 4460.1001 14207.28
1253.4 4451.4102 14201.52
1263.35 4458.9102 14211.12
1266.09 4455.52 14210.36
1269.08 4454.6699 14210.36
1271.6899 4452.5 14210.8
1274.4 4449.0498 14205.22
1277.87 4448.29 14203.58
1231.45 4473.5898 14198.15
1235.0699 4471.6602 14200.02
1238.4399 4472.1401 14199.58
1241.45 4471.3799 14204.39
1245.01 4472.54 14208.45
1248.3101 4469.4702 14204.39
1252.62 4471.6401 14209.75
1254.48 4465.1001 14203.54
1256.9399 4464 14206.93
1262.99 4472.3101 14213.36
1268.88 4465.3501 14207.02
1223.76 4492.75 14202.34
1226.11 4489.5 14201.59
1228.51 4486.4302 14199.09
1231.35 4486.6602 14202.03
1234.96 4484.6602 14199.09
1239.75 4488.5898 14200.69
1242.35 4484.5898 14204.88
1253.55 4488.21 14210.86
1255.5 4481.9302 14207.83
1258.27 4478.5801 14211.8
1260.02 4474.9199 14204.8
1226.7 4503.5298 14201.93
1229.05 4500.2598 14201.09
1239.3199 4500.4902 14214.65
1241.01 4493.1699 14199.13
1245.71 4496.75 14208.85
1248.49 4495.0498 14210.72
1213.36 4517.7202 14198.58
1215.98 4515.3799 14200.67
1230.39 4517.0698 14210.16
1232.55 4513.0801 14204.82
1238.3199 4510.3599 14208.34
1241.65 4508.96 14206.92
1213.27 4531.27 14203.85
1227.1801 4518.98 14201.73
1234.0601 4528.8301 14210.84
1226.4 4538.48 14210.11
0 0 0 1 0 0 0 1 0 0 0 1 0 0 0 0 0 87 1 0 0
