ply
format ascii 1.0
comment PCL generated
element vertex 354
property float x
property float y
property float z
element camera 1
property float view_px
property float view_py
property float view_pz
property float x_axisx
property float x_axisy
property float x_axisz
property float y_axisx
property float y_axisy
property float y_axisz
property float z_axisx
property float z_axisy
property float z_axisz
property float focal
property float scalex
property float scaley
property float centerx
property float centery
property int viewportx
property int viewporty
property float k1
property float k2
end_header
367.23001 5473.3198 14428.38
376.59 5479.25 14422.67
384.12 5481.23 14416.8
388.78 5479.8901 14420.39
395.92001 5476.3999 14416.71
399.48001 5474.5 14412.41
403.07001 5473.1299 14409.51
389.39999 5488.6299 14412.24
393.45001 5486.02 14408.2
396.54999 5485.1001 14408.46
400.07001 5482.6699 14402.76
349.60999 5511.3999 14427.37
354.31 5510.1802 14422.91
361.60999 5508.2202 14416.95
346.04001 5522.1699 14421.73
350.17001 5520.2598 14417.44
355.01001 5521.0698 14420.33
362.5 5521.8101 14421.47
366.66 5520.46 14418.67
370.57001 5515.3701 14412.27
378.67999 5509.7002 14409.3
381.54001 5504.96 14407.82
339.51001 5536.9702 14426.07
343.04999 5533.8599 14420.64
355.79001 5533.1802 14418.89
360 5532.3599 14417.49
363.17999 5532.1602 14417.49
371.34 5526.8101 14411.18
375.94 5524 14408.82
340.64999 5546.8599 14418.92
343.92999 5548.1699 14424.88
352.16 5543.1001 14415.16
356.95001 5542.9502 14413.5
360.70001 5543.25 14414.9
363.76001 5541 14407.54
368.60001 5541.6401 14412.1
376.64999 5534.3398 14404.84
380.67001 5530.8999 14402.84
332.32999 5550.5698 14421.01
348.59 5554.2998 14412.65
352.89001 5554.5698 14414.05
357.64999 5553.8398 14410.89
361.98001 5554.6802 14413.78
365.04001 5552.4102 14406.43
369.29001 5552 14408.09
377.16 5541.9399 14393.76
345.69 5567.7598 14414.07
349.48999 5568.6099 14416.87
353.54999 5565.0601 14408.38
339.06 5582.1499 14415.2
342.79999 5581.77 14416.87
346.29001 5577.5298 14408.56
350.03 5577.29 14408.56
358.98001 5574.52 14402.87
314.14999 5597.5698 14424.49
318.34 5595.52 14421.87
326.64001 5590.2002 14415.59
329.88 5590.4399 14418.75
334.35999 5584.5 14414.4
339.73001 5593.1802 14410.91
343.76001 5588.7598 14404.27
350.72 5588.21 14406.03
307.07001 5605.8398 14418.1
310.31 5606.0898 14421.26
314.67001 5606.7998 14417.56
319.37 5604.21 14413.64
323.79999 5606.2798 14417.56
327.28 5601.0898 14412.96
340.35999 5603.52 14406.88
347.44 5595.9902 14394.83
351.91 5598.5098 14402
299.57001 5616.9102 14418.89
303.89001 5616.9702 14423.71
307.72 5617.8599 14418.35
310.82001 5615.3198 14414.33
315.89001 5618.9399 14416.14
320.01999 5615.6401 14412.39
324.31 5614.9902 14409.33
328.01001 5613.6499 14414.6
331.67001 5611.6499 14412.08
336.14001 5605.1499 14406.34
295.54001 5632.6499 14425.93
304.51001 5628.4502 14422.55
311.45999 5626.79 14413.17
316.56 5630.96 14416.37
320.76999 5628.7798 14415.52
328.60999 5623.9902 14410.55
332.25 5621.4399 14406.63
336.76001 5615.5 14402.3
284.85001 5646.3501 14420.79
289.10001 5644.4902 14416.6
292.32001 5643.8901 14421.6
300.85999 5641.1099 14417.68
305.07001 5638.7998 14418.5
308.98999 5640.9199 14414.25
317.07999 5640.1699 14409.43
321.34 5638.6899 14408.3
325.57001 5636.77 14404.02
292.85999 5654.2402 14417.53
297.22 5654.46 14420.69
305.73001 5650.9399 14416.95
310.17999 5652.9199 14414.47
313.42001 5652.4502 14417.81
317.70001 5651.1001 14406.85
281.85999 5662.5801 14421.04
286.64999 5671.0898 14420.93
290.47 5671.2998 14423.99
302.07999 5664.0298 14415.22
306.76999 5660.1602 14410.09
310.66 5661.5801 14406.11
313.78 5658.9199 14403.87
273.92001 5678.4902 14419.88
277.54001 5674.3101 14419.84
290.92001 5680.1099 14413.96
294.10999 5678.3101 14417.94
307.35999 5671.0498 14407.4
271.23001 5690.5601 14421.73
275.04999 5690.5 14420.06
283.10001 5687.3501 14421.15
287.75 5692.8901 14415.54
292.06 5691.5698 14412.75
294.67001 5689.2202 14415.24
298.92001 5686.75 14409.57
283.57999 5697.1602 14415.66
292.53 5700.7798 14405.77
248.67999 5725.3198 14428.06
264.09 5713.6602 14422.62
272.32001 5713.52 14419.19
276.16 5713.4702 14417.52
279.25 5709.4102 14415.74
284.13 5708.0601 14412.95
289.41 5714.8398 14408.54
244.66 5734.21 14419.76
249.06 5734.1201 14417.99
253.00999 5723.71 14420.45
256.29001 5723.4302 14422.12
260.28 5726.4702 14424.17
264.54001 5723.4302 14417.02
276.63 5723.27 14412.01
280.23001 5718.0698 14407.44
285.13 5717.2402 14405.95
249.63 5747.3301 14421.02
253.53999 5735.77 14420.6
257.34 5734.4502 14417.72
260.75 5736.8301 14420.05
265.13 5736.0698 14418.65
269.48999 5735.1001 14410.67
273.84 5733.7798 14407.89
277.16 5734.1699 14409.28
280.70999 5727.8198 14401.83
240.89999 5749.6401 14421.86
245.69 5758.4302 14418.27
254.07001 5747.8301 14420.74
257.89999 5747.0601 14419.25
265.53 5744.73 14410.25
269.98001 5745.4399 14406.54
274.28 5742.98 14400.88
278.16 5743.48 14400.6
225.73 5771.2002 14420.06
230.06 5768.7002 14424.22
234.44 5767.3999 14421.44
241.96001 5761.7798 14420.22
246.11 5768.23 14412.73
251.14 5769.1299 14415.51
254.5 5757.5898 14415.11
258.34 5756.8599 14413.72
261.70001 5757.6699 14410.1
266.69 5758 14411.5
270.92999 5754.0601 14398.13
221.78999 5784 14421.56
226.17999 5782.6802 14418.69
230.45 5778.5 14418.68
234.82001 5776.6099 14414.41
246.57001 5779.1401 14409.97
251.53999 5778.3701 14408.57
255.09 5770.8999 14416.35
258.81 5767.21 14409.57
262.17001 5768.02 14405.96
267.12 5767.2002 14404.47
222.27 5796.6401 14423.06
226.7 5796 14419.9
231.39999 5788.2798 14413.12
235.86 5788.6499 14414.52
242.88 5783.6499 14414.79
247.57001 5789.4702 14405.8
252.03999 5789.9702 14405.53
256.10001 5781.23 14412.19
259.19 5775.8501 14401.15
263.16 5777.75 14400.32
267.57001 5776.98 14398.93
210.44 5807.8999 14421.94
214.83 5806.0498 14417.77
223.21001 5806.4302 14417.49
227.17 5808.0801 14420
231.92999 5801.6001 14414.33
236.38 5801.29 14416.01
243.28999 5793.4399 14409.23
247.96001 5798.6602 14398.76
252.44 5799.1602 14398.48
256.85001 5797.9702 14394.03
256.41 5788.1899 14399.59
263.63 5788.0898 14396.16
201.94 5820.1699 14423.69
206.32001 5817.73 14418.04
210.84 5818.8599 14419.24
215.21001 5816.4102 14413.58
223.64999 5817.9102 14416.09
228.17999 5819.5898 14418.68
232.39 5813.0698 14412.94
236.75999 5810.6099 14407.28
243.72 5803.79 14405.06
248.53 5811.9902 14399.95
253.48 5810.0898 14395.78
194.59 5834.3701 14426.36
206.75 5829.8101 14418.11
211.23 5829.7798 14416.44
216.28 5830.1602 14417.83
224.05 5828.3901 14410.23
228.53999 5828.7798 14411.62
232.81 5823.4302 14408.75
237.27 5823.25 14408.75
240.92 5816.7798 14403.1
190.53999 5847.3999 14424.38
194.96001 5845.4302 14421.88
199.39999 5844.02 14420.77
207.17999 5841.8999 14418.18
211.64999 5841.2598 14415.02
216.67999 5841.0801 14415.02
220.83 5832.1802 14415.33
224.58 5842.1602 14414.46
228.88 5837.4102 14403.16
233.24001 5834.3799 14406.04
237.56 5830.1802 14396.13
241.84 5825.3799 14394.65
190.87 5857.7598 14420.17
195.32001 5856.3599 14419.06
199.85001 5857.2402 14423.6
207.57001 5852.8198 14415.36
212.63 5852.8901 14412.02
217.02 5850.2998 14408.04
191.21001 5868.1201 14415.95
196.31 5869 14420.49
200.71001 5865.8501 14415.12
204.02 5864 14410.86
208.56 5864.8901 14415.41
213.06 5864.98 14412.06
179.05 5875.5498 14421.39
183.14 5880.27 14419.42
191.61 5880.2202 14415.98
196.66 5879.3599 14416.27
201.08 5876.7798 14412.29
204.44 5876.0898 14410.9
170.50999 5892.04 14419.63
175.5 5888.7998 14416.03
183.37 5887.4902 14421.33
187.14999 5882.2202 14418.57
192.59 5892.9902 14415.72
196.99001 5889.1499 14410.64
205.41 5887.6899 14407.77
157.97 5909.46 14425.83
170.88 5904.8301 14419.36
179.72 5897.5298 14414.03
183.66 5896.7402 14414.31
188.42 5904.1802 14411.2
192.83 5900.4702 14404.45
197.42999 5902.5098 14411.76
201.78999 5897.48 14403.82
158.83 5920.5 14421.29
162.74001 5917.8701 14419.08
176.22 5913.0898 14414.29
180.67 5910.2002 14415.42
184.58 5908.21 14412.84
188.83 5916.8501 14412.59
193.25 5913.1299 14405.84
149.45 5931.48 14421.85
154.59 5931.8398 14425
159.19 5933.7998 14424.15
163.66 5930.6602 14418.79
172.16 5929.6001 14420.75
176.60001 5925.77 14415.68
180.97 5919.9902 14409.78
184.98 5920.8901 14414.23
150.3 5942.4102 14418.97
154.78999 5939.8799 14415.09
159.47 5944.1602 14419.88
163.96001 5941.5898 14415.91
167.11 5931.9502 14418.22
176.92999 5936.7002 14412.8
181.34 5932.0601 14409.68
138.11 5957.77 14426.06
142.62 5955.0898 14423.77
150.58 5953.3799 14416.17
155.09 5951.3901 14413.59
159.71001 5953.3398 14412.73
164.28 5953.1001 14414.41
168.25999 5952.6499 14409.68
177.17999 5945.3101 14404.27
133.67999 5963.9302 14415.22
150.92999 5967.3398 14418.62
155.44 5964.77 14414.66
160.06 5966.0298 14414.08
164.55 5962.8799 14408.73
168.62 5965.3398 14411.03
133.99001 5977.9302 14417.76
139.19 5979.6401 14420.25
143.16 5977.71 14417.76
147.14999 5976.4302 14414.89
151.24001 5979.46 14418.57
155.75999 5976.8901 14414.61
164.82001 5972.6602 14403.06
129.69 5990.9102 14415.66
134.27 5990.6299 14419.09
139.42 5989.54 14412.88
143.45 5989.7998 14417.61
147.42 5987.3599 14411.98
151.45 5988.0601 14410.02
155.98 5985.5 14406.06
165.75 5985.4502 14402.72
125.93 6003.7202 14416.97
129.92999 6001.8599 14412.72
134.50999 6000.9902 14414.78
117.97 6008.71 14414.96
121.95 6006.0898 14412.76
130.19 6013.9902 14412.65
135.3 6010.7202 14408.98
144.50999 6009.9302 14407.59
148 6011.04 14410.46
126.42 6026.8999 14412.27
131.08 6028.4702 14418.19
135.59 6023.4302 14410.28
101.12 6035.0298 14418.94
105.18 6035.6602 14418.65
108.66 6036.1001 14421.79
113.88 6036.2998 14416.68
123.02 6030.3101 14412.5
127.24 6038.4102 14410.7
101.28 6044.2402 14411.83
105.99 6048.3701 14419.93
109.44 6047.1499 14417.16
118.68 6045.0801 14414.59
127.47 6049.3901 14407.83
102.1 6058.73 14417.34
106.18 6059.3501 14417.05
109.63 6057.5098 14412.81
119.49 6056.7402 14411.43
123.43 6050.5498 14400.76
109.82 6067.8701 14408.45
119.67 6065.8999 14404.21
102.5 6082.52 14413.94
106.57 6081.9302 14410.79
110.02 6078.8101 14405.46
114.74 6082 14407.44
102.67 6092.25 14408.09
110.26 6092.1201 14408.09
0 0 0 1 0 0 0 1 0 0 0 1 0 0 0 0 0 354 1 0 0
