ply
format ascii 1.0
comment PCL generated
element vertex 67
property float x
property float y
property float z
element camera 1
property float view_px
property float view_py
property float view_pz
property float x_axisx
property float x_axisy
property float x_axisz
property float y_axisx
property float y_axisy
property float y_axisz
property float z_axisx
property float z_axisy
property float z_axisz
property float focal
property float scalex
property float scaley
property float centerx
property float centery
property int viewportx
property int viewporty
property float k1
property float k2
end_header
1293.73 5617.9902 13491.38
1284.03 5672.79 13580.72
1286.33 5640.21 13507.73
1289.98 5636.3101 13500.74
1292.5601 5630.1802 13488.15
1294.83 5622.7598 13476.02
1280.08 5655.3101 13512.02
1283.6 5648.25 13501.37
1288.63 5650.3101 13503.29
1290.27 5637.54 13476.92
1292.84 5631.4102 13464.33
1275.4399 5687.9902 13555.25
1278.01 5663.8198 13505.28
1282.1 5661.73 13500.87
1285.48 5656.52 13494.35
1285.97 5638.6299 13448.68
1271.48 5690.7798 13534.53
1273.48 5679.2402 13507.61
1276.75 5673.4399 13499.72
1279.62 5668.46 13489.9
1281.4399 5658.8101 13467.21
1282.5601 5643.6401 13437
1269.4 5702 13524.99
1269.78 5683.1401 13489.66
1273.62 5679.8599 13482.4
1243.65 5744.52 13521.05
1246.08 5734.5 13506.76
1253 5729.2402 13498.32
1258.04 5728.6299 13504.76
1229.29 5758.2202 13516.53
1233.8 5741.6001 13484.91
1237.9301 5739.3999 13483.73
1241.0601 5732.5698 13466.39
1244.78 5728.5098 13466.14
1224.54 5779.3799 13551.14
1225.02 5759.8999 13511.19
1227.88 5751.6099 13474.53
1230.36 5741.6699 13455.2
1234.3 5743.9302 13463.92
1238.4301 5741.7202 13462.73
1212.9 5784.6201 13516.67
1218.42 5769.5898 13492.7
1223.63 5753.3198 13467.54
1227.89 5748.98 13442.26
1232.51 5751.71 13452.35
1211.3101 5774.2598 13466.34
1214.17 5768.6099 13456.83
1217.38 5764.6802 13454.83
1221.35 5764.3599 13463.02
1224.49 5757.3701 13450.66
1202.48 5792.98 13472.42
1205.5699 5791.0698 13469.58
1208.62 5783.5298 13455.95
1212.42 5779.5698 13450.64
1216.04 5777.4902 13451.21
1218.87 5771.75 13445.01
1221.87 5764.0801 13436.34
1203.08 5795.8398 13452.78
1209.97 5789.96 13444.65
1197.92 5813 13465.84
1200.51 5805.8301 13472.09
1200.9 5804.9302 13444.03
1206.17 5793.96 13448.29
1194.67 5819.7998 13451.5
1198.51 5815.8301 13446.2
1205.05 5805.3501 13446.87
1192.15 5830.2202 13445.56
0 0 0 1 0 0 0 1 0 0 0 1 0 0 0 0 0 67 1 0 0
