ply
format ascii 1.0
comment PCL generated
element vertex 1745
property float x
property float y
property float z
element camera 0
property float view_px
property float view_py
property float view_pz
property float x_axisx
property float x_axisy
property float x_axisz
property float y_axisx
property float y_axisy
property float y_axisz
property float z_axisx
property float z_axisy
property float z_axisz
property float focal
property float scalex
property float scaley
property float centerx
property float centery
property int viewportx
property int viewporty
property float k1
property float k2
end_header
558.15997 6132.25 14021.5
214.92999 6160.5698 14018.55
222.7 6162.75 14024.14
228.07001 6163.8999 14023.54
232.7 6161.2002 14019.63
241.17 6165.8901 14027.37
245.85001 6164.5601 14022.95
251.00999 6160.3101 14024.73
255.75999 6160.7202 14026.1
259.67001 6155.3398 14023.37
268.32999 6164.23 14024.33
273.01001 6162.8398 14019.82
277.23001 6151.3901 14019.74
285.10001 6155.46 14026.21
289.82001 6155.2402 14026.21
294.67001 6157.6401 14026.69
298.79999 6157.3701 14028.36
302.85001 6155.46 14020.81
306.78 6151.2998 14020.91
312.17999 6152.8398 14025.03
317.28 6159.98 14021.78
321.41 6159.7402 14023.54
324.85001 6157.54 14024.43
329.47 6155.3701 14021.89
334.78 6155.0801 14021.89
339.32001 6151.6299 14018.27
343.70999 6155.9399 14021.3
347.14001 6153.79 14020.52
352.81 6159.8301 14027.66
357.32001 6155.8398 14021
362.07999 6156.23 14020.71
366.04999 6153.2998 14021.89
370.07001 6151.1802 14019.44
375.09 6146.27 14018.07
380.53 6157.7202 14022.95
385.17001 6156.1099 14021.78
389.26999 6155.1802 14022.08
393.39999 6154.9199 14022.08
398.12 6154.6099 14022.08
403.39999 6153.73 14019.04
408.28 6155.8701 14024.62
416.54001 6155.3198 14024.62
421.07999 6152.3799 14024.14
426.29999 6150.6699 14024.73
430.28 6148.3701 14025.62
433.28 6140.48 14017.29
439.28 6149.9902 14017.96
443.81 6146.9702 14019.14
448.48001 6145.9902 14017.68
452.64001 6146.2598 14020.81
460.66 6142.5898 14013.86
465.41 6142.7002 14018.57
473.79999 6143.9902 14021.11
477.82999 6142.3901 14020.03
482.89999 6146.6499 14019.63
492.28 6145.3301 14016.5
495.82001 6145.02 14018.26
499.60999 6140.6602 14020.03
505.06 6142.1001 14022.48
509.29999 6136 14016.7
513.46997 6136.2598 14018.07
517.65997 6143.8198 14019.63
522.70001 6147.3101 14021.19
526.84003 6133.2402 14015.62
532.71997 6146.4199 14022.95
540.63 6141.9102 14017.96
545.28003 6140.7598 14019.92
549.47998 6134.6099 14014.15
563.78003 6141.79 14018.74
577.71002 6138.3999 14021.3
223.75 6175.2598 14025.28
228.56 6177.04 14026.06
233.34 6178.0698 14028.81
238.13 6179.2998 14026.54
242.28 6179.04 14029.97
246.94 6177.0698 14024.09
251.53999 6173.52 14025.58
256.25 6172.6499 14025.87
260.45001 6173.8501 14023.52
268.85001 6176.1602 14024.09
274.16 6175.3501 14020.96
277.85001 6165.1602 14023.73
285.87 6172.1201 14022.15
290.63 6172.5 14023.52
295.09 6166.46 14019.42
299.79001 6165.5601 14019.72
303.51999 6169.1899 14024.71
307.41 6163.8198 14022.06
312.76001 6164.1602 14023.44
322 6171.0098 14021.85
325.38 6167.6001 14020
330.01001 6165.4302 14017.46
335.42999 6167 14021.67
340.12 6166 14023.63
344.47 6169.7002 14025.28
347.73999 6164.46 14017.46
353.39001 6169.8999 14023.22
358.07999 6168.96 14023.52
362.85001 6169.3501 14023.22
366.87 6167.0601 14025.87
370.92999 6165.5 14024.71
375.97 6160.6299 14023.44
381.94 6170.8701 14023.8
390.06 6167.7598 14021.55
394.12 6166.2202 14020.48
398.89001 6166.52 14021.85
404.13 6165 14017.34
408.98999 6166.54 14021.55
417.26001 6165.98 14021.55
421.94 6164.8901 14025.28
426.95001 6160.0898 14018.83
430.89999 6157.1802 14018.34
435.67999 6166.0601 14020.96
440.13 6161.8599 14017.64
444.79999 6160.75 14021.37
449.39001 6158.4902 14018.83
453.60999 6159.3599 14023.33
461.78 6157.54 14020.59
466.94 6155.1602 14019.72
474.87 6157.7598 14023.33
479.20001 6152.3999 14015.6
488.07999 6152.0801 14023.73
493.39001 6159.0698 14020.48
496.92999 6158.79 14020.48
501.17001 6152.5298 14018.05
505.94 6152.75 14019.42
510.44 6149.6899 14020.6
514.51001 6148.75 14019.23
518.10999 6149.1201 14018.93
523.45001 6156.1499 14014.01
527.96002 6146.3198 14018.15
537.83002 6157.3799 14019.59
541.78998 6155.0098 14020.48
546.23999 6151.4702 14015.19
550.70001 6148.2998 14018.05
555.58002 6149.6499 14023.93
564.97998 6154.8799 14021.26
219.94 6184.9102 14017.7
224.16 6186.6201 14021.91
228.98 6188.3901 14022.69
233.78999 6190 14028.56
238.53 6189.4502 14020.42
242.60001 6187.27 14021.31
247.45 6189.6099 14025.23
252.03 6185.4102 14025.25
256.75 6184.6099 14023.88
264.42999 6183.7402 14020.83
269.39999 6188.7202 14023.46
274.79999 6189.7402 14026.3
286.23001 6179.8901 14027.02
290.94 6179.0601 14025.65
295.78 6180.8398 14024.77
300.39999 6178.1499 14019.19
304.67001 6180.48 14023.1
308.32999 6182.3198 14022.21
313.60001 6180.7998 14019.37
323.35001 6185.4302 14025.52
326.70001 6181.3101 14023.88
330.81 6180.48 14022.5
336.14999 6180.1899 14022.5
340.76999 6177.9199 14023.39
345.14001 6181.5898 14024.95
348.62 6180.1099 14023.88
354.07001 6181.8901 14021.31
358.81 6181.48 14024.65
363.41 6178.8101 14017.4
367.60999 6179.5898 14027.01
376.95001 6176.6499 14018
382.64001 6182.1401 14022.09
390.85999 6180.2798 14022.69
394.92999 6178.8101 14019.94
400.25 6178.3999 14021.61
404.95001 6177.5098 14018.48
409.73001 6177.8398 14019.94
418.23999 6180.4199 14025.23
422.67001 6175.6201 14020.54
427.85999 6173.2402 14021.43
431.85999 6170.9399 14022.32
436.64999 6179.8398 14023.17
441.03 6174.3599 14018.78
445.66 6172.6602 14021.13
450.35001 6171.6401 14021.43
454.20999 6167.5698 14014.68
462.67001 6169.4102 14020.26
467.94 6168.3101 14022.32
475.69 6168.4199 14020.26
480.12 6164.25 14015.27
484.26001 6163.9199 14017.03
488.92001 6162.7402 14020.66
494.48999 6172.8501 14022.69
497.89001 6170.6899 14020.24
507.01999 6165.8901 14022.02
516.15997 6168.4399 14022.21
519.15997 6161.6802 14018.4
525.41998 6172.2598 14023.46
530 6170.0698 14017.59
534.78003 6170.2402 14020.72
538.97998 6170.48 14022.09
542.89001 6167.5698 14019.94
547.22998 6162.71 14013.49
220.53999 6201.8398 14026.94
229.44 6200.9302 14023.81
234.72 6198.8501 14021.36
243.21001 6202.9399 14027.72
252.37 6193.6602 14016.68
257.17001 6194.6802 14019.42
261.16 6190.5498 14019.53
265.28 6189.7002 14019.83
269.87 6199.4399 14020.47
275.35001 6202.27 14027.42
279.14001 6193.73 14019.42
286.70001 6190.0298 14020.9
292.07001 6190.3599 14024.04
296.89001 6191.5601 14020.02
301.07001 6191.9399 14023.15
305.29001 6193.0098 14024.22
308.66 6188.9102 14022.57
313.94 6187.4302 14019.83
319.09 6195.1699 14017.93
323.81 6194.25 14018.23
327.26001 6191.98 14020.79
332.01001 6191.73 14020.79
336.82999 6192.7202 14023.63
346.44 6194.1499 14024.4
349.75 6189.54 14018.05
354.72 6193.1602 14019.6
359.5 6193.4702 14022.74
364.07001 6190.1201 14015.79
368.66 6187.1602 14016.98
372.32001 6188.73 14022.85
377.31 6182.6001 14018.75
383.26001 6192.2002 14017.64
395.73001 6191.3301 14021.07
401.03 6190.3101 14021.36
405.94 6192.4902 14025.18
410.60999 6191.0298 14020.77
413.37 6178.8799 14021.02
419.47 6189.79 14019.3
423.57001 6188.7402 14023.03
428.81 6186.9702 14025.3
433.38 6184.0801 14023.15
437.28 6188.6899 14015.97
441.92001 6186.8799 14019.9
447.16 6185.1299 14022.26
451.20999 6183.5098 14021.09
455.31 6182.5298 14021.39
463.47 6180.1001 14017.27
468.70001 6178.3599 14017.87
473.10001 6181.2598 14019.72
481.04999 6176.1499 14015.03
485.19 6175.7798 14016.7
490.92999 6180.5498 14019.42
498.75 6181.3398 14017.16
503.10999 6176.3301 14017.57
507.95001 6177.1499 14020.31
512.35999 6172.9102 14016.99
516.71002 6175.02 14022.57
520.70001 6172.8799 14016.7
526.21997 6181.7002 14017.64
535.71002 6180.8799 14017.64
540.65997 6182.9302 14023.21
548.56 6177.6602 14020.2
553.59003 6173.8999 14020.02
211.94 6211.6401 14019.34
216.75 6212.6001 14025.52
220.89999 6211.9102 14022.48
224.98 6209.23 14018.57
229.86 6212.2598 14022.18
235.24001 6212.6001 14025.22
243.63 6213.6299 14024.62
248.39999 6213.5 14022.95
252.95 6208.02 14021.91
257.76001 6209.0801 14024.74
262.41 6206.1401 14027.6
265.89999 6204.1001 14025.15
270.41 6211.98 14021.58
279.35001 6198.5 14015.67
283.95001 6207.9399 14024.74
287.89999 6203.1401 14023.39
292.54999 6200.4502 14017.82
297.48999 6204.0898 14021.13
301.70999 6205.0898 14025.63
305.82001 6203.6899 14021.13
309.79001 6199.5898 14019.58
314.57001 6199.96 14020.95
320.37 6208.2798 14020.42
324.56 6208.6401 14023.55
327.95999 6205.1899 14021.61
332.67999 6204.2598 14021.91
337.48001 6204.6499 14023.37
342.76001 6203.0098 14023.97
347.03 6204.8198 14021.31
350.42001 6201.46 14017.79
355.39999 6205.0898 14019.34
360.04999 6202.9302 14016.9
364.84 6203.2598 14018.27
369.54999 6202.1499 14023.67
373.23001 6203.75 14027.78
378.14999 6196.4102 14020.95
384.04001 6204.73 14018.75
392.20999 6201.6499 14016.6
397.07999 6203.1699 14020.71
401.79999 6202.2598 14019.34
407.19 6202.5098 14020.71
411.48001 6204.1602 14023.25
414.20999 6191.3999 14022.14
420.35999 6202.96 14021.88
424.98001 6200.6201 14022.77
429.51001 6197.0898 14019.17
434.07999 6194.1499 14018.68
442.91 6200.7202 14022.18
447.89001 6195.1802 14017.79
452.64001 6194.8398 14017.79
456.19 6194.4399 14021.13
460.35001 6194.1401 14021.13
465.14001 6194.3901 14022.5
469.70999 6191.5498 14018.68
474.01001 6193.1699 14019.46
482.22 6191.2002 14020.05
486.85999 6189.4902 14020.65
491.51001 6187.77 14021.25
496.48999 6197.8799 14024.92
499.75 6193.8501 14018.27
504.23001 6190.0601 14021.42
509.67001 6190.8799 14022.5
513.46002 6186.0498 14019.58
517.54999 6185.0601 14018.11
521.71002 6184.7798 14016.44
527.13 6192.3398 14014.54
532.13 6187.8599 14016.33
537.38 6193.3301 14018.75
545.58002 6191.27 14019.34
550.37 6191.3599 14024.15
202.91 6227.1099 14022.68
207.62 6225.02 14020.15
212.35001 6223.5801 14019.08
217.16 6224.5498 14025.25
221.34 6224.46 14023.58
225.46001 6222.3799 14021.04
230.87 6223.5298 14020.45
235.69 6224.5498 14024.95
240.34 6221.0898 14023.01
244.08 6224.96 14022.98
248.85001 6224.79 14021.22
253.99001 6218.7202 14018.9
258.20999 6219.7598 14021.64
262.84 6216.21 14023.13
266.44 6216.6499 14026.26
271.64001 6226.3198 14026.79
276.07001 6218.3198 14021.94
280.60001 6212.8701 14020.98
288.37 6213.21 14018.92
293.20001 6214.25 14021.76
298.17999 6218.5098 14026.44
302.20001 6215.1602 14021.16
306.44 6216.2402 14022.23
310.35001 6210.8701 14017.85
315.73999 6211.21 14019.22
320.98001 6220.21 14020.15
325.19 6220.5801 14023.28
328.59 6217.1201 14021.34
333.29001 6215.5801 14020.27
338.09 6215.9302 14021.64
343.31 6213.0898 14019.49
347.73001 6217.3599 14022.42
351.01999 6212.1299 14014.7
356.64999 6216.3701 14017.71
361.66 6220.3701 14029.15
366.32999 6218.29 14023.28
370.12 6211.6299 14016.07
374.47 6214.4302 14024.77
384.76999 6216.6499 14018.48
393.04001 6214.79 14019.08
397.84 6215.0898 14020.45
402.57001 6214.1802 14019.08
408.09 6216.2998 14024.65
412.14999 6214.2202 14018.78
416.32001 6213.9502 14018.78
420.95999 6211.7598 14014.57
425.79001 6212.5 14022.42
430.29999 6208.3599 14017.44
434.95999 6206.6802 14019.79
438.72 6209.0298 14020.27
444.39999 6213.2002 14023.28
448.79001 6207.7002 14018.9
453.60001 6207.96 14020.27
457.66 6206.3301 14020.86
461.14001 6204.8101 14018.03
466.04001 6206.3701 14020.57
470.60999 6203.4199 14018.33
475.60999 6206.25 14021.94
483.20001 6203.7202 14021.16
487.79999 6201.4199 14018.63
492.39999 6199.0298 14019.52
501.41 6206.9199 14020.75
505.20001 6201.96 14021.16
510.56 6201.5898 14019.49
515.03998 6197.8701 14019.22
522.71002 6196.6802 14016.18
528.25 6205.52 14015.35
532.70001 6194.48 14016.78
538.52002 6206.4502 14021.22
541.95001 6197.71 14014.99
546.63 6203.1699 14019.08
551.21002 6200.7998 14018.3
555.78003 6198.3101 14020.86
189.98 6234.1802 14021.37
203.38 6241.5601 14026.21
207.98 6235.71 14017.04
213.42 6237.3301 14022.91
218.14 6235.27 14020.47
221.83 6238.23 14027.41
225.96001 6236.1899 14024.97
231.36 6236.6899 14022.91
236.21001 6238.3799 14027.11
240.98 6237.7402 14020.64
244.57001 6237.5098 14024.07
249.38 6238 14023.77
254.55 6232.48 14022.74
259.32999 6232.29 14022.74
263.34 6228.1499 14022.86
266.95001 6228.5498 14025.9
272.04999 6235.79 14020.94
276.92001 6237.5098 14023.47
281.25 6227.2402 14026.2
288.87 6223.9302 14015.91
293.64001 6223.71 14015.91
298.60001 6227.3198 14019.13
311.07001 6225.2798 14023.15
316.47 6225.6201 14024.53
321.66 6233.3599 14022.61
325.81 6232.4702 14022.91
329.22 6229.0498 14021.07
333.98999 6228.73 14022.74
339.37 6228.4399 14022.74
344.07001 6226.8501 14023.33
348.39999 6229.29 14022.14
351.76999 6225.27 14017.16
357.44 6230.1299 14021.54
362.07001 6227.3101 14017.64
366.98999 6229.5698 14021.54
370.89999 6224.77 14018.53
375.07999 6224.5098 14020.29
385.70999 6231.73 14023.47
390.29001 6228.2202 14019.87
398.45001 6224.54 14014.59
403.42001 6227.3198 14021.54
408.92001 6228.8999 14024.07
413.57001 6226.7202 14019.87
417.32999 6229.0098 14023.77
426.57001 6223.8799 14019.1
431.75 6220.8398 14018.53
435.79001 6218.5498 14019.42
439.92999 6226.2598 14019.27
445.16 6223.8599 14020.17
449.70001 6220.23 14020
454.47 6219.8799 14020
458.5 6217.6602 14017.46
462.17001 6218.6499 14020.29
466.75 6215.8198 14014.71
471.60999 6216.5898 14020.89
476.32999 6215.71 14016.08
483.98001 6213.77 14016.68
488.73999 6213.3301 14018.35
493.45001 6212.2002 14022.08
502.47 6220.0498 14023.21
506.67001 6212.6299 14016.38
511.48001 6212.8501 14017.75
516.08002 6210.3799 14020.32
520.14001 6208.8198 14017.58
523.82001 6209.7998 14018.65
529.32001 6218.0298 14016.44
533.82001 6207.5898 14019.25
539.34003 6215.8799 14015.37
543.72998 6218.0498 14019.27
190.36 6246.75 14022.44
195.00999 6242.1001 14017.77
199.24001 6243.1699 14022.27
203.73 6252.29 14023.18
208.44 6249.52 14020.95
213.81 6248.6699 14021.25
218.62 6249.0898 14024.38
222.25999 6250.1899 14027.12
227.00999 6248.73 14026.05
236.57001 6247.8501 14021.25
241.44 6249.7402 14018.68
245.59 6248.1699 14020.95
250.48 6250.5298 14024.85
255.06 6245.1001 14022.15
259.85001 6244.8999 14022.15
263.79001 6238.8301 14019.74
267.38 6238.6201 14021.41
272.60001 6248.3999 14020.35
278.04999 6249.4199 14023.18
281.79001 6239.1802 14025.91
289.64999 6240.8198 14026.77
294.35001 6238.73 14022.57
299.29001 6241.7402 14024.41
307.64999 6240.7798 14021.37
311.70001 6237.8301 14024.24
317.07999 6237.6201 14022.57
322.17999 6243.4302 14018.12
326.42999 6244.4102 14022.62
329.85001 6240.98 14020.78
334.64001 6240.73 14020.78
340.01999 6240.3901 14022.44
344.79999 6240.04 14025.87
349.14001 6242.48 14024.68
352.62 6240.3501 14022.15
358.23001 6243.9902 14023.78
367.66 6240.8901 14019.88
371.54001 6235.4902 14015.5
375.79001 6236.3999 14019.91
380.85999 6230.8901 14017.3
395.17999 6239.23 14018.12
399.45001 6240.23 14020.95
404.20001 6239.25 14021.25
409.57999 6238.96 14019.58
414.35999 6238.6401 14019.58
432.63 6233.3901 14019.61
436.63 6230.4702 14019.14
441.42001 6238.8101 14018.68
450.56 6232.1699 14017.95
455.34 6231.77 14019.61
459.56 6232.0498 14022.74
462.95999 6229.3101 14017.17
467.64001 6227.7002 14014.34
472.97 6226.6001 14016.4
477.29001 6228.23 14017.17
481.01999 6229.8198 14021.37
485.59 6226.8501 14019.14
489.67999 6225.2402 14018.07
495.14001 6233.5098 14015.85
503.48999 6232.6299 14022.62
507.73999 6225.7598 14018.84
512.46002 6224.7598 14017.47
517.07001 6222.29 14020.04
521.03003 6219.4702 14014.47
524.82001 6221.7002 14018.37
530.48999 6231.8101 14020.35
186.02 6262.0698 14023.99
190.67 6256.8198 14017.95
195.42 6255.27 14020.22
199.62 6255.1099 14021.98
204.08 6262.98 14020.05
209.44 6261.4502 14020.65
214.22 6260.6201 14020.95
219.06 6261.6499 14025.45
223.13 6257.8198 14015.38
227.46001 6261.3501 14025.45
232.22 6260.04 14019.28
237.14 6262.8901 14027.89
242 6264.1802 14023.95
246.06 6260.1802 14018.98
250.99001 6263.0898 14025.92
255.58 6257.6699 14023.21
260.29999 6255.6001 14019.01
264.29999 6250.8398 14017.78
267.97 6252.5 14023.65
273.09 6259.73 14018.68
278.51999 6260.1099 14020.05
282.26999 6249.9302 14021.12
290.12 6250.9199 14020.52
294.79999 6248.1499 14016.62
299.84 6253.1299 14021.08
304.75 6255.3198 14028.32
312.23001 6248.5698 14019.45
317.63 6248.29 14019.45
331.12 6253.52 14021.84
335.23999 6252.0298 14019.01
340.67001 6252.3901 14020.48
345.35999 6250.1099 14021.38
349.81 6254.4399 14022.62
353.32999 6252.9102 14023.21
358.84 6254.6699 14020.65
363.53 6252.4399 14019.88
368.42999 6254.0498 14022.32
372.47 6251.1299 14023.52
376.44 6247.1099 14016.88
381.70001 6244.6499 14021.12
387.70999 6254.29 14020.05
391.82001 6252.75 14018.98
395.94 6251.1602 14017.82
400.26001 6252.77 14022.02
405.64001 6252.3599 14023.69
410.20001 6248.3599 14013.62
415.20001 6251.1802 14020.65
418.88 6252.2202 14021.72
423.67999 6251.8999 14021.72
433.32001 6243.4399 14015.12
437.56 6243.6802 14019.92
442.35001 6251.96 14021.12
446.78 6246.4502 14016.75
451.56 6245.9702 14021.84
456.29999 6244.9502 14022.15
460.35001 6242.7202 14019.62
464.45001 6241.1899 14016.88
468.76999 6242.7402 14021.08
473.82001 6237.8599 14014.65
478.48999 6243.9102 14023.52
481.98999 6242.3501 14022.45
486.51999 6238.77 14018.85
490.56 6236.5098 14016.32
499.81 6231.7202 14018.12
504.25 6242.0698 14016.75
508.76001 6238.2798 14019.92
513.59998 6238.54 14021.38
518.10999 6234.8101 14021.12
522.23999 6233.9102 14018.08
525.88 6234.2798 14017.78
172.56 6275.1499 14021.71
177.34 6273.73 14020.64
181.59 6274.96 14020.04
186.39999 6274.6401 14025.05
191.73 6271.9199 14022.91
195.8 6267.2202 14019.91
200.03999 6268.29 14024.41
204.55 6277.4199 14025.3
209.88 6274.6899 14021.41
214.64999 6273.2402 14020.34
219.46001 6272.9502 14023.68
223.74001 6274.7402 14026.21
227.87 6272.6499 14023.68
232.69 6272.6001 14020.34
238.14999 6273.5601 14024.75
243.14 6277.9399 14027.74
246.63 6274.5801 14024.14
251.41 6273.7798 14022.78
255.99001 6267.7402 14018.71
260.85001 6268.8101 14021.54
264.88 6264.6201 14021.58
269.01001 6262.54 14019.14
273.82999 6276.6201 14029.41
279.14001 6273.9502 14022.17
282.89999 6263.75 14025.01
290.70001 6263.4702 14021.58
295.95999 6260.1201 14014.64
300.95001 6263.7798 14017.94
305.14999 6263.52 14019.61
312.85999 6261.1201 14020.51
318.29999 6261.46 14021.88
331.70999 6264.8101 14020.08
341.32001 6264.29 14020.08
346.04999 6262.6602 14022.44
354.53 6263.5601 14020.08
359.67001 6269.1001 14025.91
364.29999 6265.6602 14020.64
368.98999 6263.5 14016.44
373.51999 6258.6699 14013.44
377.42001 6263.3599 14026.25
382.54999 6258.52 14023.34
388.48001 6266.8398 14021.11
393.37 6267.75 14025.61
396.73001 6263.71 14018.88
400.94 6263.4399 14018.88
406.34 6263.0698 14020.64
411.14001 6262.7798 14018.88
416.07001 6264.3999 14021.41
419.72 6264.77 14022.78
425.13 6264.3999 14022.78
429.07001 6260.23 14019.48
434.32001 6257.8501 14020.38
438.94 6254.9502 14018.24
443.14999 6263.27 14019.44
447.81 6260.9199 14020.34
452.79001 6254.7202 14014.51
457.12 6256.23 14020.38
461.26999 6255.25 14020.68
465.42001 6254.3301 14019.31
469.70999 6255.2798 14022.14
474.92001 6252.27 14019.91
479.31 6254.5698 14020.38
483.31 6251.7402 14016.57
487.45999 6250.75 14016.87
491.70001 6250.9702 14019.91
496.88 6247.9199 14019.45
505.20999 6253.9902 14016.44
509.73001 6250.2002 14019.61
514.58002 6250.4199 14020.98
523.34003 6247.0498 14020.51
163.2 6285.4302 14018.86
168.07001 6287.1401 14024.72
172.96001 6289.6099 14026.95
177.66 6285.04 14018.86
182.00999 6289.4302 14023.52
186.71001 6285.3799 14021.99
192.19 6286.98 14029.52
196.23 6281.0498 14023.8
201.05 6280.8398 14025.47
205.5 6288.0898 14022.15
210.38 6289.75 14028.02
215.12 6287.04 14024.13
219.89999 6285.54 14024.72
224.12 6285.4399 14023.06
228.17 6280.8599 14014.96
233.16 6285.1699 14021.39
238.56 6284.29 14021.69
243.42999 6285.5298 14017.65
247.05 6285.3101 14021.09
251.92 6286.3999 14022.15
256.53 6280.9199 14021.13
265.94 6275.3198 14018.53
269.60001 6276.3301 14022.94
279.67001 6285.8999 14021.85
283.26999 6271.9399 14016.3
288.19 6287.3999 14026.05
291.95001 6277.27 14025.47
296.59 6273.29 14017.07
301.67001 6278.8301 14024.56
305.73001 6275.4702 14019.3
314 6271.77 14017.37
324.72 6281.1201 14019.63
332.54999 6280.5298 14026.39
337.26001 6278.3701 14023.96
342.04001 6277.5 14022.59
347.39001 6275.8599 14023.19
355.28 6276.7598 14022.59
360.25 6279.1602 14021.39
364.98999 6277.5601 14020.23
369.79999 6277.2798 14020.23
374.42001 6273.71 14020.06
378.10999 6274.7598 14022.89
383.31 6271.0698 14024.4
389.34 6280.6201 14024.89
393.92001 6276.54 14018.26
397.48999 6275.6401 14018.56
402.29999 6275.3398 14018.56
407.10999 6275.0298 14018.56
412.48999 6274.0601 14017.19
416.95001 6277.5601 14023.82
420.39999 6274.8301 14018.26
425.94 6276.3398 14022.46
430.44 6271.52 14017.79
435.20001 6270.46 14019.76
439.87 6268.1099 14020.67
444.04001 6275.8198 14020.48
448.70999 6273.46 14021.39
453.79001 6268.52 14018.39
458.54999 6267.5 14018.69
462.10999 6266.5698 14019
466.35999 6266.8701 14020.36
471.12 6265.96 14017.32
480.26999 6267.1099 14021.43
488.53 6264.5 14020.67
493.23001 6262.8398 14019.6
497.88 6260.4502 14020.5
506.17999 6265.9102 14016.12
510.5 6259.6299 14013.73
168.37 6298.4902 14023.02
173.89 6301.5698 14024.86
178.07001 6299.5498 14022.43
182.41 6303.2798 14027.39
187.14 6299.8599 14025.46
192.5 6297.0601 14025
197.25 6294.2202 14026.21
201.41 6292.1499 14023.68
210.7 6299.2202 14022.12
215.57001 6300.23 14026.53
220.28999 6296.8799 14023.02
224.61 6299.25 14026.83
228.78999 6297.8101 14025.76
234.2 6297.0601 14020.97
243.94 6298.71 14020.06
247.47 6295.9902 14017.93
252.32001 6296.4702 14017.63
257.59 6292.2402 14019.43
261.89001 6293.9399 14023.63
266.51999 6289.1099 14022.31
270.07999 6287.6699 14021.25
275.34 6297.3999 14021.82
280.20001 6297.8599 14021.52
284.54999 6286.9702 14022.92
289.37 6299.9502 14027.08
292.5 6289.23 14025.14
297.26999 6287.73 14022.31
302.25 6290.79 14024.23
314.63 6284.3301 14018.42
320.10999 6285.3198 14021.25
325.41 6294.3398 14022.12
333.14999 6291.8599 14024.7
337.89999 6290.3198 14023.63
342.73001 6290.0601 14023.63
347.94 6285.9199 14018.67
355.89001 6287.4399 14019.43
361.5 6290.4199 14019.6
366.32001 6290.1001 14021.26
371.26001 6291.7402 14023.79
375.20999 6286.9302 14020.8
379.31 6284.7798 14018.37
384.60999 6282.3198 14022.62
390 6291.3599 14020.06
394.59 6287.21 14015.1
398.23999 6287.5801 14018.23
413.39001 6287.8398 14020.97
417.62 6287.6201 14019.3
421.97 6289.27 14021.82
426.75 6288.2798 14022.12
436.03 6282.3901 14019.43
440.66 6279.4302 14018.97
444.75 6285.8701 14015.96
450.20999 6285.9702 14022.43
454.66 6280.46 14018.07
459.51999 6280.7202 14019.43
463.73001 6280.3501 14021.1
467.23999 6278.7998 14020.04
472.06 6278.5 14018.37
477.01001 6279.8901 14025.91
481.64999 6277.1099 14016.91
485.25 6276.8301 14016.91
489.51001 6277.04 14021.71
494.07001 6273.5 14016.45
498.72 6271.1099 14017.35
504.42999 6281.8501 14022.43
151.17 6312.1802 14023.75
155.36 6310.1401 14021.23
163.85001 6310.6001 14020.92
168.60001 6307.29 14015.66
174.25999 6314.77 14027.25
179.08 6313.98 14027.55
182.72 6313.9702 14024.22
188.12 6312.4199 14026.49
192.89999 6310.2598 14027.4
197.53999 6303.6899 14020.31
201.77 6303.4902 14021.98
206.35001 6313.9199 14023.91
211.08 6310.52 14020.32
215.88 6309.0898 14019.25
221.38 6310.73 14025.12
224.97 6309.3301 14022.29
229.2 6309.1602 14024.05
234.7 6310.2998 14023.45
239.58 6311.3501 14026.18
244.48 6312.6099 14022.24
247.99001 6309.1802 14020.32
252.92999 6311.5498 14024.22
258.26001 6308.6001 14027.09
262.85999 6302.7202 14016.27
267 6300.4502 14020.61
270.57001 6298.9702 14019.45
275.89001 6309.9902 14021.08
280.76001 6310.4302 14022.54
285.14999 6300.1602 14025.32
292.91 6298.0298 14017.78
297.85999 6300.2998 14023.35
302.70001 6300.2002 14018.24
306.98999 6301.21 14022.74
315.25 6296.8901 14019.45
320.67999 6296.6201 14019.45
325.95999 6305.02 14018.96
333.70999 6302.5498 14021.53
338.64999 6304.1699 14025.72
343.98001 6301.9399 14023.2
348.57001 6297.21 14016.88
356.64001 6300.6699 14020.16
362.29999 6304.27 14021.69
366.98001 6301.4302 14019.56
372.04001 6304.9302 14026.18
375.81 6297 14016.27
380.07001 6297.3398 14019.4
385.29999 6293.6499 14020.91
390.67001 6302.0698 14016.98
395.45999 6301.04 14018.96
399.64999 6300.1602 14017.59
403.91 6300.46 14020.62
414.14001 6299.2202 14017.59
419.04999 6300.1299 14020.32
422.81 6301.8301 14022.85
427.47 6298.9502 14018.96
432.12 6296.02 14016.73
437.32999 6292.3999 14014.9
441.48999 6291.3198 14018.55
445.91 6302.21 14023.61
450.97 6296.6499 14019.25
455.70001 6294.8999 14021.53
460.34 6292 14017.64
464.51999 6291.02 14017.94
468.37 6293.8999 14024.96
472.95999 6290.3901 14017.94
477.73001 6289.3301 14020
482.60999 6289.6499 14017.94
486.26999 6290.0298 14019.4
490.34 6287.71 14018.55
495.10999 6286.6602 14018.85
499.87 6285.5298 14022.58
136.88 6323.27 14018.9
141.13 6323.1699 14018.9
145.99001 6323.5498 14025.38
151.49001 6325.3901 14026.13
155.66 6322.1001 14020.88
164.77 6322.5498 14020.58
169.61 6322.3599 14022.25
179.35001 6323.4399 14021.64
183.14 6328.4502 14029.42
188.42 6322.5 14021.94
193.19 6319.7202 14021.49
198.02 6318.79 14025.13
202.25 6318.6401 14026.89
206.69 6324.6099 14020.73
211.58 6325.6299 14026.89
216.92999 6322.2598 14021.64
221.8 6322.6899 14024.77
225.42 6321.9102 14023.31
230.28999 6322.3901 14024.77
235.14 6322.2798 14021.33
244.97 6325.1899 14023.25
249.21001 6324.9199 14026.6
253.88 6320.3301 14016.84
258.75 6320.5601 14026.74
263.57001 6319.7402 14025.38
267.64001 6315.5498 14025.43
271.17001 6312.8701 14021.63
281.26001 6321.73 14020.73
285.60001 6310.23 14020.78
290.35999 6321.3799 14019.06
293.56 6311.8799 14019.87
298.51999 6314.1499 14027.2
303.51999 6317.1602 14029.02
308.17999 6313.1899 14020.72
315.95001 6310.73 14023.31
321.29001 6308.6299 14017.44
326.67001 6318.8301 14022.7
334.34 6314.5 14021.18
339.12 6312.9702 14018.36
344.47 6310.8301 14014.25
349.39999 6312.2798 14023.46
357.26999 6311.9702 14018.36
362.91 6315 14018.6
367.64001 6312.7202 14017.75
372.45001 6311.8799 14014.71
376.56 6309.5601 14017.29
380.79001 6309.25 14018.96
386.14999 6307.4399 14024.67
392.20999 6317.1001 14023.56
396.29001 6314.27 14019.67
400.35999 6311.46 14015.77
404.79999 6314.3101 14022.7
409.64001 6313.98 14024.46
414.97 6311.7998 14018.6
419.89001 6312.71 14021.33
423.57001 6313.1201 14021.04
428.28 6310.9102 14016.84
432.98001 6308.5801 14017.75
438.37 6307.46 14021.49
447.31 6313.4502 14021.8
451.78 6307.9302 14017.44
456.60999 6307.46 14022.55
461.22 6303.9302 14017.29
465.54001 6304.8398 14021.79
469.07001 6303.2998 14018.96
473.81 6301.71 14016.23
479.29001 6301.8398 14021.03
483.76999 6304.7598 14022.85
487.19 6301.9199 14018.96
491.82999 6298.98 14016.83
141.45 6337.6099 14024.01
146.85001 6334.8501 14023.56
151.71001 6334.8501 14020.21
156.53999 6333.3999 14019.06
159.92 6322.6099 14022.25
165.08 6334.5298 14018.45
170.02 6337.52 14027.14
174.88 6337.4502 14023.71
179.67 6334.79 14019.91
184.09 6340.4199 14029.05
193.58 6332.3599 14020.82
198.41 6331.3701 14026.14
202.53999 6327.4399 14019.52
207.11 6337.2002 14021.74
212.57001 6336.96 14025.17
217.45 6337.4102 14026.53
222.2 6334.0098 14022.95
226.52 6335.7998 14025.47
230.72 6334.3198 14024.32
235.56 6333.6299 14019.61
240.42 6333.3999 14021.28
245.53 6339.6699 14028.45
249.60001 6335.0098 14022.04
254.39 6332.9199 14017.84
259.13 6330.02 14020.82
263.91 6327.9302 14016.63
268.07001 6325.6201 14020.89
271.67999 6324.79 14021.19
277.01999 6335.7998 14024.56
282.39999 6333.6699 14020.37
286.17001 6322.8599 14020.13
291.01999 6335.8501 14024.26
294.09 6323.23 14018.15
298.89999 6322.3301 14018.46
304 6327.29 14022.8
308.70001 6323.8799 14017.54
313.13 6327.4702 14024.17
316.60999 6323.98 14024.01
322.12 6324.9399 14026.75
327.23001 6329.5698 14017.84
332.04999 6328.6499 14018.15
339.76001 6324.9199 14018
345.25 6325.25 14019.37
350.06 6324.2402 14023.1
357.92001 6323.2998 14016.63
363.56 6326.2998 14016.78
368.45001 6326.5601 14021.58
373.29999 6326.3398 14019.91
377.39001 6323.3999 14021.13
381.59 6322.4702 14021.43
392.76001 6325.8901 14016.18
397.12 6327.4702 14022.04
401.32001 6326.5298 14022.34
405.51999 6325.6499 14020.97
410.89999 6324 14019.91
415.82999 6324.98 14020.97
420.64999 6324.0498 14017.84
424.29001 6323.8101 14017.84
429.31 6325.9902 14023.4
439.16 6318.75 14019.67
443.35001 6317.7598 14021.74
448.01999 6323.5098 14017.24
452.87 6323.0498 14022.34
457.38 6318.1299 14019.37
462.04999 6315.2598 14015.57
466.32001 6315.5098 14018.61
470.51999 6314.5801 14017.24
474.85001 6315.4902 14019.97
480.04999 6311.8901 14016.48
484.94 6320.1099 14017.55
488.12 6313.8599 14018.61
492.95001 6313.4302 14020.28
497.04001 6311.1401 14019.52
128.78 6342.5698 14023.65
137.46001 6349.6802 14023.64
152.03 6348.0601 14022.58
156.91 6348.5498 14025.71
160.2 6333.9702 14020.52
165.49001 6350.29 14026.46
170.24001 6345.7002 14018.39
175.14999 6346.9102 14017.78
180.00999 6346.7202 14019.45
184.35001 6349.2202 14021.66
189.10001 6345.1699 14018.39
198.77 6342.73 14024.41
207.56 6351.0801 14025.55
213 6349.6099 14024.49
217.84 6348.77 14024.79
226.92999 6347.1201 14023.64
231.23 6348.1899 14028.14
236.10001 6348.1201 14024.79
241.48 6345.3398 14020.91
246.5 6349.0698 14022.43
250.10001 6347.5898 14023.03
254.89 6345.5 14018.84
259.64999 6342.6001 14021.82
264.56 6343.6401 14024.55
268.63 6338.8599 14023.34
272.67001 6333.6001 14013.9
283.14001 6350.0601 14027.98
286.70999 6334.8198 14019.76
291.42999 6344.6401 14016.87
300.17001 6336.1699 14020.52
305.22 6339.8398 14023.8
309.59 6342.1001 14031.03
313.98999 6344.8101 14021.36
317.07999 6333.4302 14018.09
322.60999 6334.3901 14020.83
328.01001 6344.71 14024.49
335.67999 6328.2798 14024.92
341.10999 6338.7402 14021.82
345.84 6335.9702 14016.26
350.73001 6336.21 14020.97
355.70001 6338.0098 14018.39
359.26999 6336.46 14019
364.32001 6339.4902 14019.15
369.22 6339.8101 14022.27
378.70999 6335.27 14020.67
382.70999 6341.0298 14021.36
387.64999 6332.02 14023.65
398.51001 6340.0098 14023.03
402.12 6339.1001 14023.33
406.29001 6337.6001 14020.6
411.64001 6335.3501 14016.41
416.54001 6335.6499 14017.78
421.51999 6337.2798 14020.3
425.13 6336.3701 14018.84
430.76999 6338.5601 14024.49
434.62 6332.4702 14017.02
440.04001 6331.3599 14019
444.66 6327.7798 14017.18
448.91 6336.0698 14018.24
453.63 6333.7202 14019.15
458.25 6330.0698 14019
463.04999 6329.0498 14019.3
467.69 6334.0498 14018.54
471.85001 6332.5 14015.8
476.85001 6334.0298 14019.99
481.06 6325.0601 14018.85
485.41 6326.1299 14016.57
493.94 6325.98 14021.28
124.36 6365.1899 14026.84
129.03999 6355.1699 14024.64
137.73 6362.2798 14024.63
142.60001 6362.1802 14024.63
147.44 6360.1001 14023.87
152.89999 6358.7998 14017.7
157.19 6359.8701 14023.87
160.60001 6349.6899 14028.44
165.82001 6362.8999 14027.45
175.58 6362.6899 14025.78
180.48 6363.1699 14027.14
184.77 6363.77 14025.17
189.50999 6359.0898 14020.53
194.96001 6357.5298 14022.81
199.14 6354.7002 14024.03
207.91 6361.7798 14022.34
213.34 6359.6802 14019.92
218.19 6358.8501 14020.22
223.17 6361.71 14030.49
227.33 6358.4702 14021.89
231.62 6358.8799 14024.93
236.48 6358.1899 14020.22
242.00999 6359.1699 14024.63
247.02 6362.3301 14024.86
250.60001 6360.1899 14024.01
255.5 6360.6602 14023.71
260.10999 6353.9102 14019.99
265.06 6355.6099 14024.18
273.32001 6348.7002 14020.45
278.07001 6359.7202 14023.71
283.5 6358.29 14019.31
287.37 6349.2998 14024.95
292 6357.2402 14017.85
295.29001 6349.0098 14021.51
300.76001 6348.75 14021.51
306.04999 6357.1899 14020.98
310.10999 6352.8301 14027.92
314.25 6350.1201 14020.6
318.28 6345.3198 14017.63
323.14999 6345.0698 14017.63
329.26999 6357.2598 14025.47
333.31 6352.5698 14017.4
336.22 6338.3999 14018.69
341.76001 6350.7202 14019.68
346.63 6350.4399 14021.44
352.32999 6354.1201 14021.28
356.51999 6352.4902 14023.56
360.16 6352.21 14027
365.07999 6352.73 14021.59
369.84 6350.4902 14019.07
374.79001 6351.4902 14021.89
379.54001 6349.1802 14022.81
383.19 6348.9102 14024.48
388.29999 6342.7002 14020.45
394.35999 6351.7002 14019.61
399.23001 6351.3501 14021.28
402.79999 6349.8301 14020.22
407.67001 6349.5098 14020.22
412.54001 6349.2002 14020.22
422.28 6348.5698 14018.46
426.06 6350.2798 14020.98
431.53 6349.8501 14022.65
436.14001 6345.6099 14019.38
440.87 6343.3101 14018.62
445.67999 6342.2402 14022.36
449.67001 6346.79 14015.12
454.48999 6345.6699 14018.76
459.82001 6343.2598 14019.68
464.63 6342.23 14021.75
468.04001 6338.73 14016.41
472.29999 6338.4702 14014.74
477.39999 6341.2798 14021.75
482.10999 6338.9102 14020.9
486.37 6338.6899 14017.56
119.5 6366.73 14021.13
129.27 6366.54 14021.13
134.12 6365.0898 14021.74
138.62 6375.54 14027.06
142.87 6374.1602 14024.23
147.7 6371.46 14022.11
153.25 6373.2998 14022.87
157.46001 6370.5601 14020.66
166.14999 6375.5 14028.42
170.97 6372.79 14024.54
176.53999 6375.2798 14024.99
185.06 6373.8501 14020.58
189.87 6371.0298 14020.05
195.36 6370.75 14025.15
200.19 6368.52 14027.74
204.42 6367.0898 14026.68
208.89 6373.1299 14018.82
213.75999 6372.2798 14020.89
218.60001 6370.7798 14019.74
223.49001 6370.6001 14021.5
227.8 6371.6899 14024.23
232.00999 6369.6201 14021.81
237.63 6372.6299 14025.29
242.49001 6371.8198 14023.93
247.38 6371.75 14018.82
250.99001 6370.2598 14019.43
255.92999 6371.3999 14020.58
261.20999 6365.8599 14019.6
265.51001 6366.2998 14020.96
270.22 6362.1201 14021.13
273.85999 6361.29 14021.43
279.17999 6371.04 14021.95
288.51999 6361.25 14024.56
293.37 6373.6099 14027.2
296.48001 6361.5698 14022.49
301.39001 6362 14023.95
306.34 6363.1201 14021.58
314.88 6362.7598 14019.9
318.98001 6359.1802 14021.43
324.47 6358.9102 14021.43
334.04001 6366.4399 14019.43
342.5 6364.5801 14023.48
347.32001 6363.0298 14022.42
352.70001 6360.7202 14021.58
357.12 6363.1699 14020.35
360.73999 6362.29 14020.66
365.88 6366.6001 14023.62
371.17999 6363.04 14020.05
376.03 6362.1899 14017.01
380.14001 6359.2402 14018.23
384.51999 6360.8301 14024.09
389.67999 6355.2402 14021.43
395.22 6365.5698 14021.64
399.98001 6363.3101 14020.89
403.56 6361.79 14018.07
408.31 6359.5698 14015.64
413.31 6361.1201 14019.74
418.92999 6362.71 14022.26
423.03 6359.9102 14016.7
427.51001 6362.8101 14021.95
437.04999 6358.8501 14020.05
441.78 6356.5 14020.96
446.89001 6359.52 14019.43
450.79001 6362.5601 14021.34
456.09 6359.48 14022.56
460.78 6356.4902 14022.11
465.54999 6354.8101 14020.96
469.67999 6352.5801 14018.54
473.37 6352.9302 14019.9
478.25 6352.5698 14019.9
124.71 6383.1699 14025.37
130.14999 6379.75 14023.46
134.67999 6391.6001 14026.48
138.89999 6388.1602 14026.26
143.17999 6388.0498 14028.02
147.96001 6382.7798 14020.26
153.58 6387.1499 14026.56
162.03999 6382.4902 14018.59
166.41 6385.5801 14023.83
171.31 6385.3999 14025.5
176.85001 6386.6499 14023.22
181.75 6386.46 14024.89
185.41 6385.79 14020.09
190.86 6383.6099 14021.01
195.78999 6384.6299 14028.94
200.75 6386.5098 14026.26
204.74001 6377.1699 14022.1
209.37 6387.6299 14023.97
214.24001 6386.75 14025.95
219.08 6384.6602 14023.53
224.56 6383.7998 14023.83
228.21001 6383.0498 14022.47
232.49001 6382.8398 14024.14
238.03 6383.3701 14020.4
242.92 6383.1802 14022.16
247.95 6386.2998 14022.3
251.52 6383.5298 14020.09
256.54001 6386.52 14027.1
261.81 6380.4102 14023.08
266.57001 6377.02 14016.07
270.76001 6374.7598 14020.42
274.35001 6372.6401 14019.67
279.73001 6383.6899 14021.24
284.64999 6384.1001 14022.61
289.01001 6371.9502 14021.34
293.78 6382.4502 14018.11
297.01001 6372.9702 14019.06
301.89999 6372.6899 14020.73
306.94 6375.71 14022.54
315.44 6374.1099 14018.14
319.48001 6369.25 14016.85
325.07999 6370.9302 14019.37
330.45001 6379.9199 14021.85
334.70001 6379.0298 14020.4
337.45999 6361.7002 14016.56
343.17999 6377.1802 14024.44
348.62 6375.5801 14023.39
353.39001 6373.3101 14022.54
357.82001 6375.7598 14021.32
361.26999 6371.73 14014.71
367.14001 6377.9102 14021.85
371.95999 6376.29 14022.47
380.85001 6371.21 14017.83
385.23999 6372.7998 14023.69
390.29999 6365.2998 14016.85
395.92001 6376.8799 14019.78
400.97 6379.0898 14027.1
405.04999 6375.6201 14021.85
409.35999 6375.9702 14023.22
414.25 6375.6001 14024.89
419.67001 6374.0098 14020.4
424.60999 6374.3501 14021.85
428.35999 6375.3901 14022.91
433.03 6371.8701 14017.67
437.87 6370.8101 14019.65
443.14001 6367.1802 14017.83
447.17999 6363.5801 14015.93
451.67999 6375.1299 14022.3
466.47 6367.3799 14021.93
470.64999 6365.77 14020.87
116.42 6398.6899 14021.66
119.96 6391.3198 14021.69
124.9 6393.25 14020.77
130.39 6391.7402 14023.06
139.09 6396.9902 14018.93
143.41 6398.1401 14021.66
148.28 6396.6802 14024.03
153.82001 6397.23 14021.96
158.10001 6396.4502 14022.27
162.42999 6397.6299 14025.09
167.35001 6398.1699 14024.79
172.19 6395.5098 14019.24
177.2 6399.2598 14024.17
182.11 6399.0698 14025.84
185.81 6399.6899 14023.86
191.24001 6396.2202 14021.96
196.08 6394.1001 14021.21
200.96001 6393.1699 14026.63
205.17 6390.4502 14022.75
209.78 6400.2402 14024.92
214.60001 6397.4902 14022.81
220.00999 6394.1001 14017.56
224.92 6393.8799 14019.24
228.59 6393.7998 14017.56
238.5 6395.98 14021.35
243.45 6397.0298 14025.84
248.48 6400.1499 14025.98
252.60001 6395.4902 14019.68
257.48001 6394.6699 14018.31
262.26999 6391.73 14021.21
267.17999 6391.5298 14021.21
271.5 6392.0698 14019.24
274.85999 6384.6201 14017.5
280.31 6396.9199 14023.56
285.16 6395.4102 14020.74
294.44 6396.96 14023.25
297.91 6392.1401 14021.96
302.48999 6385.29 14021.69
307.54999 6388.3599 14021.83
312.45001 6388.0698 14023.5
316.12 6387.9399 14021.83
320.28 6385.04 14023.06
325.72 6383.52 14020.33
331.07001 6391.8999 14019.68
335.35999 6391.6299 14021.35
338.29001 6377.4399 14024.44
343.85999 6389.77 14025.4
349.17001 6385.6602 14017.03
353.98999 6384.04 14019.41
358.78 6392.8301 14030.33
362.16 6387.4702 14022.58
367.94 6391.75 14025.54
372.62 6387.5898 14020.6
377.63 6389.2598 14023.11
381.76001 6386.3198 14024.34
385.85001 6382.8599 14019.1
391.23001 6380.4302 14023.36
397.42999 6391.3301 14024.92
401.56 6388.4902 14021.04
405.69 6385.6802 14017.26
410.04999 6386.6499 14019.99
414.85999 6385.04 14018.93
420.34 6384.0698 14015.8
425.39999 6386.3198 14019.68
429.03 6385.4502 14018.31
433.89001 6384.5 14016.95
438.82001 6384.6802 14023.42
444.10001 6381 14021.52
130.75999 6409.73 14021.54
134.88 6401.0698 14018.76
139.39999 6411.52 14024.05
154.17 6411.75 14027.09
159.03999 6409.71 14024.67
162.75 6410.2402 14026.03
167.72 6412.0898 14026.78
172.60001 6410.6602 14025.73
182.49001 6412.3101 14028.15
186.74001 6410.3701 14020.62
191.61 6408.8301 14022.91
196.49001 6407.3301 14023.52
201.34 6405.1499 14026.21
205.72 6407.77 14021.54
210.13 6410.9399 14021.68
215.64 6410.0801 14023.75
220.50999 6408.6201 14020.93
225.42999 6408.3901 14024.36
229.11 6408.27 14022.6
233.92999 6405.5498 14018.82
238.99001 6409.25 14023.75
243.86 6407.73 14022.6
248.97 6412.7598 14026.92
253.12 6408.71 14021.98
258.09 6409.8101 14024.8
262.84 6405.6201 14024.98
267.73001 6404.75 14023.52
271.72 6397.4302 14016.78
280.92001 6410.77 14027.22
286.34 6408.04 14020
290.10001 6395.9199 14018.76
294.97 6408.27 14021.37
298.23999 6399.4102 14023.7
303.35001 6403.2598 14020.18
308.10001 6399.7202 14020.05
312.94 6398.1401 14018.9
317.32999 6399.8901 14021.41
320.78 6395.1201 14018.45
326.26999 6394.2202 14017.08
331.79001 6405.79 14023.44
336.70001 6405.48 14025.11
340.28 6403.2202 14027.71
344.47 6401.0801 14023.52
349.95999 6400.1602 14022.16
359.17001 6399.75 14018.82
362.70001 6396.9102 14016.61
368.51999 6401.8198 14020.93
373.35001 6400.1899 14021.54
378.41 6402.48 14025.42
382.47 6398.25 14023.83
386.60999 6395.4502 14020.05
392 6393.0698 14022.63
398.10001 6402.02 14021.68
402.26999 6399.8301 14019.26
406.69 6401.4199 14025.11
410.70001 6396.71 14015.38
416.42001 6399.5 14024.05
421.29001 6398.5601 14020.93
426.20001 6398.2798 14019.26
429.79001 6396.75 14016.44
434.70001 6396.4199 14016.44
439.69 6397.27 14024.36
444.79999 6391.0498 14016.92
130.88 6415.73 14022.21
135.14999 6413.6802 14019.7
139.64 6422.2202 14020.8
143.95 6422.1201 14020.8
149.47 6421.2798 14022.78
154.41 6421.8301 14022.48
159.37 6422.9502 14026.97
163.05 6422.2402 14025.6
168.03 6424.0801 14026.35
172.87 6420.7402 14021.11
177.89 6423.8599 14024.68
187.14 6424.2798 14022.61
192.00999 6422.1201 14023.53
197.47 6419.3101 14023.09
201.63 6414.5698 14020.14
205.92 6413.77 14020.45
210.5 6422.3101 14019.88
216.09 6423.3701 14024.37
220.99001 6422.5298 14024.68
230.16 6420.2402 14022.17
234.49001 6420.7002 14025.29
239.50999 6423.1099 14027.41
244.92999 6419.6899 14022.17
249.98 6422.8198 14022.3
253.60001 6420.7002 14021.55
258.54999 6421.1299 14022.91
263.31 6416.9399 14023.09
268.14999 6414.8301 14018.91
272.31 6411.2998 14020.45
286.89999 6420.6499 14020.93
290.75 6410.4302 14023.88
295.63 6422.7998 14026.48
298.85999 6412.6499 14025.99
304.14999 6407.3198 14014.9
309.38 6413.54 14023.71
313.64999 6412.6602 14024.02
317.92999 6411.8701 14020.98
321.70999 6413.71 14018.29
327.28 6414.0898 14019.75
332.37 6417.1099 14021.55
345.66 6411.7798 14020.36
350.75 6414.6802 14027.27
355.45999 6410.52 14022.34
360.53 6412.9399 14021.11
364.10001 6410.7598 14020.36
369.23999 6414.4199 14021.86
374.16 6414.0801 14023.53
378.89001 6410.6299 14016.62
383.79999 6410.1899 14023.4
387.37 6408.0601 14019.22
393.01999 6409.73 14020.06
398.76999 6412.7402 14018.51
403.19 6414.3398 14024.37
407.29001 6410.8599 14019.13
417.16 6410.8501 14020.5
422.04001 6409.9102 14019.13
427 6410.25 14018.82
430.81 6411.8799 14022.91
436.34 6411.5 14022.91
440.38 6407.3198 14019.75
163.37 6434.8599 14026.52
173.19 6432.73 14020.67
187.49001 6436.2798 14022.16
192.39 6434.7402 14024.45
197.86 6431.9302 14024.02
202.00999 6426.5698 14019.7
216.47 6434.6899 14022.47
221.38 6433.8501 14022.78
226.2 6430.4199 14019.22
230.61 6432.8501 14023.09
234.83 6430.1099 14019.22
239.86 6432.5601 14021.42
245.39 6431.6802 14021.73
254.05 6432.0698 14019.75
259.07999 6434.4199 14023.53
263.76999 6428.3101 14021.29
268.78 6429.98 14025.38
273.45999 6423.8799 14021.37
281.79999 6430.9199 14017.98
287.41 6432.0098 14019.13
291.45001 6425.8599 14016.8
304.84 6421.8398 14020.01
309.95999 6425.52 14023.27
314.17999 6423.3999 14019.09
318.54999 6424.48 14020.14
321.95001 6418.4102 14016.14
327.59 6420.0498 14020.32
333.67001 6430.3101 14023.83
337.92001 6428.8301 14021.11
341.48001 6425.9502 14022.34
346.34 6424.3901 14019.53
351.34 6425.3701 14024.02
356.12 6422.5 14021.91
361.09 6423 14016.49
364.85001 6423.9902 14022.65
370.01001 6427.6499 14024.14
374.82001 6425.4399 14021.73
379.79001 6425.77 14023.09
384.60001 6423.46 14024.02
388.32999 6423.8599 14027.14
393.31 6414.4399 14016.14
399.70999 6427.8901 14023.22
404.35999 6423.1201 14015.25
408.29001 6426.6201 14026.96
413.04999 6423.77 14021.42
417.94 6422.8301 14020.05
423.39999 6421.2202 14015.56
427.75 6421.5601 14016.93
431.53 6422.6099 14017.98
437.07001 6422.23 14019.75
441.95001 6421.1201 14023.4
207.37 6439.6499 14023.74
211.97 6448.2002 14021.4
226.69 6444.3799 14021.27
230.97 6442.9302 14018.46
235.22 6440.8501 14016.04
241 6446.46 14025.14
245.89 6444.9702 14022.33
250.67999 6440.7998 14020.75
254.7 6448.5298 14027.25
259.62 6447.71 14025.89
265.14999 6446.6602 14032.98
269.20001 6440.0498 14020.75
273.89001 6433.9502 14016.74
277.67999 6435.6602 14022.6
283.07999 6446.1001 14022.76
291.75 6432.4902 14018.82
293.03 6447 14023.9
296.48999 6441.4502 14026.38
300.51001 6434.73 14019.25
305.5 6435.75 14023.74
310.60001 6438.7598 14025.55
314.95001 6439.2202 14027
323.32999 6433.5298 14022.6
328.91 6433.9199 14022.29
334.20001 6440.4199 14017.53
338.42001 6438.27 14015.11
342.07999 6437.27 14020.44
347.06 6437.6699 14021.89
351.92001 6436.0601 14020.75
357.47 6435.7002 14024.18
361.79999 6435.6099 14017.4
365.53 6435.98 14020.44
370.59 6437.7598 14017.84
376.10001 6436.7202 14019.82
381.23001 6439.6802 14025.14
385.28 6434.8198 14022.2
389.39999 6431.3501 14016.97
394.82001 6428.9102 14021.23
400.45001 6439.8701 14022.76
405.26999 6437.6401 14020.34
408.85001 6435.4399 14017.84
413.70001 6433.8301 14016.79
418.76001 6435.4302 14020.96
424.31 6435.0698 14019.2
428.54999 6433.5298 14016.48
433.04001 6435.8301 14020.34
207.75 6451.6499 14023.28
222.21001 6457.8501 14021.86
227.14 6457 14022.17
231.42 6455.5498 14019.36
235.85001 6457.9502 14024.9
241.33 6455.2798 14016.01
246.35001 6456.9702 14021.86
251.33 6457.5498 14016.45
255.09 6458.6099 14022.61
260.10001 6459.71 14025.42
265.35001 6451.6401 14017.25
270.38 6453.3599 14021.43
274.54001 6449.1602 14021.52
278.31 6450.25 14026.01
283.60999 6458.0898 14022.29
288.45001 6455.3198 14016.75
297.82001 6456.8701 14019.26
301.22 6449.8999 14025.7
306.10001 6448.3599 14024.65
311.17999 6450.77 14025.08
315.41 6448.6401 14020.9
319.73999 6448.46 14019.24
323.79999 6442.9702 14016.6
329.56 6446.5801 14023.28
334.89001 6453.7002 14019.88
339.14999 6452.1401 14018.74
342.85999 6451.7998 14025.52
347.67001 6448.9902 14019.98
353.20001 6448.0601 14018.62
358.14001 6447.71 14023.72
366.17999 6447.3301 14018.62
376.88 6449.9902 14022.17
381.79001 6449.0801 14019.05
385.84 6444.21 14016.11
390.16 6443.9502 14017.87
395.44 6438.9702 14016.6
401.20001 6451.8501 14022.29
406.14001 6451.5 14023.97
410.26999 6448.0098 14018.74
414.72 6449.6499 14022.92
419.48999 6446.7402 14019.05
425.26999 6449.5898 14024.28
236.91 6469.9302 14024.42
246.81 6468.9702 14021.39
251.98 6474.0298 14025.68
256.19 6470.5801 14022.13
265.98001 6466.8198 14023.68
270.79999 6463.4302 14016.78
275.07999 6461.7798 14022.42
278.85001 6462.8799 14026.9
284.14001 6470.0898 14021.82
289.19 6471.7998 14026
293.60999 6459.6201 14023.04
298.57999 6473.2998 14028.41
301.81 6462.52 14026.59
311.76001 6462.8101 14022.94
316.59 6459.9702 14019.07
320.39999 6461.7202 14021.48
324.57001 6458.1802 14021.36
330.07999 6456.6499 14018.64
335.48001 6465.02 14017.96
343.35999 6461.2402 14019.51
348.31 6460.98 14019.51
353.82001 6459.4199 14016.78
358.70001 6457.77 14019.07
363.32999 6462.7998 14021.7
366.92999 6460.5801 14020.87
372.54999 6461.0601 14015.54
377.54001 6461.3101 14020.25
382.5 6461.0698 14018.58
386.75 6459.4302 14022.63
390.81 6454.6499 14014.58
396.25 6452.25 14018.95
402.51999 6463.1699 14020.46
406.73999 6460.9302 14017.96
411.14999 6461.9102 14022.44
415.35999 6459.71 14018.26
256.42999 6476.5898 14021
261.60999 6481.71 14020.19
266.51999 6480.0801 14025.92
271.41 6477.9399 14021.75
275.64001 6475.0801 14024.75
279.17999 6470.3901 14016.71
284.66 6482.0898 14021.33
290.20001 6480.5801 14016.85
294.09 6470.3599 14019.84
299.13 6485.3101 14027.92
302.34 6473.8901 14024.75
307.29999 6473.6602 14024.75
312.26999 6473.5098 14019.64
317.32999 6475.1499 14025.49
325.26999 6472.1001 14025.06
330.62 6467.3398 14015.35
341.13 6478.0098 14021.96
344.20001 6477.0898 14025.61
348.95999 6472.9702 14019.03
354.57999 6473.29 14020.39
359.44 6471.0601 14019.64
364.04001 6475.4199 14022.58
367.64999 6473.1899 14021.75
373.32001 6474.3101 14017.78
378.23999 6473.2998 14019.77
383.23999 6473.6802 14019.46
387.42999 6470.7798 14019.03
397.07001 6465.5298 14019.53
403.19 6473.8599 14017.16
285.22 6494.7202 14022.2
290.76001 6493.21 14017.71
294.78 6485.5498 14026.25
299.54001 6494.0801 14020.44
302.84 6484.5898 14021.45
307.81 6484.3599 14021.45
312.88 6486.1401 14020.51
317.73001 6483.29 14016.65
322.26999 6486.98 14021.56
325.84 6483.4302 14023.12
349.57001 6484.3301 14015.41
360.14001 6483.6802 14020.51
365.29001 6486.71 14020.63
374.07999 6487.5601 14020.01
379.01999 6486.6001 14020.32
383.98999 6486.2998 14020.32
388.85001 6484.0098 14021.25
392.53 6483.1099 14021.56
404.17001 6489.6699 14024.92
295.35999 6498.1899 14027.11
303.54999 6499.8301 14026.17
309.10001 6498.2202 14025.03
318.57001 6500.46 14025.55
322.84 6498.3501 14019.7
326.31 6492.8701 14017.09
331.98001 6493.8501 14019.81
338.10001 6503.5 14021.92
360.95001 6498.2402 14025.55
366.04001 6499.98 14022.85
369.60001 6496.5298 14017.63
374.81 6500.1802 14020.87
379.79001 6499.8501 14022.54
384.73999 6498.9702 14019.51
389.53 6495.3701 14019.39
393.26001 6495.1001 14021.06
398.57999 6490.1001 14019.81
319.16 6512.4199 14024.95
323.53 6512.25 14023.27
327.57001 6505.4702 14017.95
333.25 6506.4902 14018.99
338.72 6515.5498 14019.73
343.23001 6517.8501 14026.93
