ply
format ascii 1.0
comment PCL generated
element vertex 109
property float x
property float y
property float z
element camera 1
property float view_px
property float view_py
property float view_pz
property float x_axisx
property float x_axisy
property float x_axisz
property float y_axisx
property float y_axisy
property float y_axisz
property float z_axisx
property float z_axisy
property float z_axisz
property float focal
property float scalex
property float scaley
property float centerx
property float centery
property int viewportx
property int viewporty
property float k1
property float k2
end_header
677.12 5286.3501 14123.71
681.34003 5287.1602 14114.98
685.91998 5290.6699 14121.67
676.69 5283.02 14084.14
681.26001 5286.5298 14098.97
685.48999 5287.3301 14082.1
690.21002 5287.9502 14091.47
694.63 5290.2202 14105.05
698.33002 5294.77 14116.21
681.19 5285.9702 14064.86
690.75 5292.0898 14071.93
694.69 5290.6201 14075.5
698.16998 5293.5801 14082.45
703.09998 5299.6201 14106.02
707.69 5299.1201 14104.27
711.54999 5300.9302 14108.32
715.82001 5301.8501 14114.28
727.62 5304.8901 14130.5
698.15002 5293.4199 14051.49
702.44 5294.6099 14062.17
707.67999 5299 14073.41
712.12 5301.27 14078.85
715.96002 5302.9399 14084.56
718.63 5299.71 14079.11
723.67999 5306.3999 14102.43
728.40997 5310.6602 14115.24
732.39001 5309.3999 14091.01
736.17999 5310.5298 14095.31
739.82001 5314.29 14116.6
744.22998 5316.1201 14127.02
719.10999 5303.25 14058.07
724.03003 5308.8999 14078.58
728.26001 5309.54 14079.72
732.89001 5312.98 14070.05
736.59998 5313.5801 14072.95
740.15997 5312.96 14082.74
744.21002 5315.96 14096.05
748.91998 5319.8501 14114.02
752.97998 5319.1401 14115.68
740.20001 5313.2798 14053.18
744.46997 5314.0898 14060.89
748.51001 5316.9502 14075.87
753.47998 5322.73 14094.72
756.52002 5318.4502 14084.72
760.98999 5324.25 14103.48
764.78003 5321.6602 14096.12
770.16998 5330.1001 14122.07
774.77002 5333 14127.26
782.15002 5333.52 14107.06
786.88 5337.23 14126.59
752.84003 5318.1899 14052.37
757.09998 5322.5298 14065.16
761.03998 5324.6001 14074.01
765.63 5327.5098 14079.2
770.28998 5330.96 14093.91
774.41998 5330.6401 14090.59
781.88 5331.6699 14071.8
786.60999 5335.3999 14091.33
791.46002 5339.9399 14108.93
795.79999 5340.96 14121.36
799.14001 5342.27 14132.14
803.94 5342.8999 14115.35
808.21997 5346.9199 14131.47
813.02002 5347.4702 14140.83
816.35999 5345.2998 14136.54
769.95001 5328.5601 14057.26
786.83002 5336.9102 14063.01
791.21002 5338.21 14072.01
795.92999 5341.8301 14093.29
799.59003 5345.3101 14109.76
804.39001 5345.8799 14092.88
808.62 5346.1001 14099.09
813.75 5352.2402 14120.99
817.15997 5350.5 14119.85
821.22998 5353.0601 14130.1
826.08002 5353.8398 14136.06
830.45001 5354.9302 14138.6
795.33002 5337.7798 14052.34
799.46997 5344.5298 14077.39
804.19 5344.5601 14059.12
808.83002 5347.4702 14072.43
813.21997 5348.77 14081.53
817.79999 5354.71 14098.62
821.02002 5351.73 14096.24
826.38 5355.77 14110.78
831.84998 5360.5801 14123.31
835.42999 5359.8799 14124.97
817.17999 5350.6299 14057.67
821 5351.5801 14063.62
826.59003 5357.1299 14084.11
832.32001 5363.5801 14100.93
835.47998 5360.1899 14095.5
839.75 5363.9502 14106.88
843.82001 5366.3799 14118.79
848.46002 5365.6699 14092.64
853.59003 5371.4199 14119.5
866.40997 5375.5898 14125.39
870.15002 5375.8301 14131.6
835.42999 5356.54 14055.95
839.29999 5361.0601 14067.08
844.28998 5366.02 14087.82
848.40997 5365.3501 14061.68
853.13 5368.5601 14079.79
857.69 5370.6699 14095.1
860.84998 5370.6001 14106.3
857.29999 5368.1802 14058.45
861.33002 5373.5698 14083.91
865.78003 5371.6802 14054.88
861.52002 5371.5 14048.67
0 0 0 1 0 0 0 1 0 0 0 1 0 0 0 0 0 109 1 0 0
