ply
format ascii 1.0
comment PCL generated
element vertex 506
property float x
property float y
property float z
element camera 1
property float view_px
property float view_py
property float view_pz
property float x_axisx
property float x_axisy
property float x_axisz
property float y_axisx
property float y_axisy
property float y_axisz
property float z_axisx
property float z_axisy
property float z_axisz
property float focal
property float scalex
property float scaley
property float centerx
property float centery
property int viewportx
property int viewporty
property float k1
property float k2
end_header
912.22998 6011.5698 13770.32
912.32001 6012.2002 13745
917.20001 6013.27 13752.63
922.45001 6016.6802 13767.41
911.77002 6008.54 13710
917.01001 6012.0298 13723.11
922.94 6016.0601 13737.68
926.85999 6018.52 13746.29
930.71002 6016.6602 13745.21
936.73999 6021.27 13761.15
916.82001 6010.75 13693.6
923.12 6017.2402 13713.74
931.95001 6020.8398 13728.3
937.32001 6024.96 13741.12
942.90997 6026.6499 13745.03
947.81 6027.71 13750.9
952.04999 6032.0601 13762.05
956.84998 6032.4102 13769.88
962.04999 6035.2998 13753.26
967.42999 6039.2402 13772.82
912.89001 6012.0298 13663.31
917.09003 6012.52 13671.13
923.02002 6016.5898 13685.69
931.65997 6018.9502 13697.42
937.32001 6021.1499 13706.03
942.79999 6025.9702 13716.88
947.81 6027.6899 13724.21
952.04999 6032.04 13735.36
956.65002 6031.1602 13740.35
962.53003 6038.3198 13733.51
967.63 6040.4702 13747.2
971.54999 6035.29 13744.17
976.17999 6041.8999 13769.39
982.46002 6047.6299 13763.04
986.59003 6043.77 13757.76
992.71997 6052.1401 13782.1
997.46002 6051.98 13783.47
912.77002 6011.27 13635.19
923 6016.46 13658.93
932.12 6021.9702 13676.03
937.96997 6025.3701 13689.13
943.09003 6027.7998 13692.75
948.08002 6029.4302 13701.65
952.03998 6031.9902 13706.92
956.84998 6032.3999 13714.84
962.22998 6036.3999 13702.63
967.51001 6036.0298 13710.74
972.22998 6039.54 13727.25
976.37 6043.0801 13745.44
982.35999 6047.0298 13733.31
987.17999 6047.4199 13739.47
992.71997 6052.1099 13755.4
997.96002 6055 13763.71
1001.63 6055.5801 13769.88
1008 6061.5698 13780.13
912.46997 6009.27 13604.34
917.25 6009.73 13610.49
922.60999 6013.8701 13626.7
932.09998 6021.8101 13649.27
937.38 6021.5601 13654.06
942.29999 6022.7402 13654.84
948.07001 6029.3398 13674.97
952.79999 6033.0601 13683.08
956.92999 6032.9199 13689.53
962.31 6036.8999 13677.32
968.28003 6040.8501 13695.21
972.90002 6039.9702 13701.94
976.73999 6041.7202 13716.01
982.34998 6046.9399 13706.63
987.57001 6049.7998 13718.36
992.29999 6049.6001 13721.39
997.23999 6050.6401 13727.25
1001.83 6056.79 13746
1007.58 6059.0698 13747.87
1012.31 6058.8101 13754.31
1017.99 6064.1802 13766.53
1022.66 6067.0498 13781.68
913 6012.7998 13586.09
917.59998 6012.0298 13589.41
922.96002 6016.1699 13605.62
931.69 6019.2002 13617.05
937.54999 6022.6699 13630.23
943.23999 6024.9702 13633.75
948.14001 6029.8198 13649.67
952.39001 6030.4302 13650.75
956.81 6032.1602 13661.4
961.69 6033.0498 13642.26
968.07001 6039.5098 13665.79
972.88 6039.8999 13673.6
976.62 6040.98 13687.87
982.41998 6047.4302 13681.32
987.45001 6049.0498 13690.21
992.39001 6050.1001 13696.08
997.53998 6052.4399 13703.1
1001.61 6055.46 13716.49
1007.67 6059.5898 13722.54
1013.5 6062.2998 13735.93
1018.4 6066.5801 13745.4
1022.14 6063.9302 13748.04
1027.29 6073.1699 13770.31
1032.71 6073.3301 13779.8
1037.77 6074.8799 13762.09
1042.23 6076.4502 13776.07
907.84998 6009.9302 13569.3
912.5 6009.46 13552.43
917.76001 6013.0698 13565.6
923.03003 6016.6201 13578.68
931.85999 6020.27 13593.23
937.23999 6020.6401 13597.63
943.69 6027.8599 13614.03
947.44 6025.3701 13611.59
953.23999 6035.8398 13636.68
957.27002 6035.0801 13641.67
962.73999 6035.8901 13622.63
967.84998 6038.1201 13636.29
973.26001 6042.2202 13652.5
977.09998 6043.9502 13666.47
982.78003 6045.9302 13651.82
987.33002 6048.2998 13662.17
992.26001 6049.3599 13668.03
998.02002 6055.3799 13683.36
1002.69 6058.3501 13695.08
1007.55 6058.8599 13692.74
1013.38 6061.6299 13706.21
1018.28 6065.8701 13717.34
1022.33 6065.0498 13724.09
1027.23 6069.2798 13735.22
1032.1801 6070.2002 13746.17
1037.54 6073.5298 13732.57
1042.92 6076.9302 13749.07
1046.23 6078.79 13757.97
1051.09 6079.0898 13767.55
888.91998 6001.4302 13493.98
892.96002 5996.98 13492.41
898.65997 6003.6899 13512.51
907.16998 6005.3999 13531.24
912.92999 6012.2998 13532.72
917.90997 6014.04 13541.7
923.94 6018.77 13557.61
927.89001 6017.54 13556.24
932.21002 6018.7002 13563.76
938.16998 6026.6099 13584.94
943.65997 6027.6602 13587.38
948.46997 6028.1499 13591.87
952.71997 6032.54 13603
957.72998 6034.2002 13613.64
963.20001 6038.7598 13601.15
967.90997 6038.5298 13611
973.03003 6040.7798 13623.01
976.87 6042.5298 13636.98
983.65002 6051.29 13637.65
987.66998 6046.77 13632.68
993.52002 6053.3901 13651.03
998.78003 6056.3501 13659.42
1002.25 6055.73 13662.83
1006.81 6054.4199 13656.39
1013.25 6060.8398 13678.07
1018.05 6064.48 13687.83
1022.72 6067.3901 13702.97
1027.01 6067.9502 13704.04
1032.58 6072.5601 13725.04
1038.04 6076.4702 13712.81
1042.79 6076.1602 13720.92
1046.11 6078.0801 13729.9
1051.55 6078.29 13739.48
1056.48 6082.46 13752.27
1061.67 6084.6699 13762.63
1070.77 6092.02 13778.73
880.33002 5998.98 13480.62
888.87 6001.1201 13467.37
893.92999 6003.4902 13481.11
898.52002 6002.7402 13484.43
904.51001 6011.2598 13512.04
908.25 6012.54 13521.31
913.08002 6009.4902 13498.88
918.34003 6016.8501 13522
923.52002 6016.0298 13525.41
928.13 6019.1001 13533.71
932.94 6023.3901 13548.25
938.41998 6024.4199 13554.1
943.63 6027.4502 13559.08
948.44 6027.9102 13565.23
952.20001 6029.23 13567.67
957.59003 6033.3701 13583.87
962.66998 6035.4302 13567.58
967.88 6038.3398 13582.69
972.89001 6039.96 13594.99
977.03998 6043.5898 13613.15
983.01001 6047.3799 13600.95
987.34003 6044.73 13600.17
993.39001 6052.5801 13623
998.53998 6054.8999 13629.93
1002.12 6054.8901 13634.71
1008.07 6058.4302 13639.39
1013.43 6061.9199 13654.22
1018.44 6066.8198 13665.05
1022.28 6064.7598 13668.97
1026.98 6067.79 13677.36
1031.9301 6068.7402 13688.3
1037.0699 6070.77 13673.64
1042.98 6077.27 13697.06
1046.25 6075.3701 13697.65
1052.0601 6081.23 13719.72
1056.88 6084.8101 13731.14
1062.1899 6087.6699 13741.2
1067.1899 6088.71 13743.64
1071.55 6093.0298 13754.76
1076.55 6094.02 13760.62
1082.1 6098.1602 13770.08
1087.4399 6101.0498 13778.48
1096 6104.9702 13771.01
879.91998 5996.1699 13448.45
883.45001 5996.2598 13453.22
893.78003 6002.5 13453.05
898.65997 6003.6699 13460.65
903.15997 6002.25 13465.92
907.72998 6009.1099 13487.67
913.59998 6012.8599 13480.56
918.67999 6015.23 13490.89
924.23999 6020.6802 13509.91
927.79999 6016.9302 13502.89
932.60999 6021.27 13515.76
938.27002 6023.4902 13526.01
943.88 6029.04 13536.64
948.20001 6026.3901 13535.77
952.73999 6032.6899 13549.42
958.03998 6036.2002 13564.16
962.71997 6035.7598 13542.3
968.13 6039.8999 13560.15
973.04999 6040.9302 13571.08
977.09998 6043.96 13587.87
983.17999 6048.3799 13577.12
988.21002 6050.0498 13586
993.25 6051.73 13593.22
998.5 6054.6602 13603.27
1002.08 6054.6699 13608.05
1008.14 6058.8198 13614.09
1013.5 6062.3101 13628.93
1018.57 6064.04 13632.83
1022.35 6065.1699 13643.67
1027.37 6070.0698 13656.25
1032.3199 6071.0298 13667.19
1038.45 6075.4102 13658.08
1042.41 6073.9702 13663.36
1046.53 6077.0098 13675.08
1051.92 6080.4199 13691.58
1056.86 6084.6602 13704.45
1061.84 6085.6602 13710.31
1066.51 6084.8501 13708.56
1070.99 6089.8198 13721.14
1076.63 6094.5 13735.29
1081.86 6096.7798 13740.56
1087.09 6099.0698 13747.58
1095.97 6104.8398 13744.31
1100.75 6104.5298 13750.76
1106.55 6106.52 13764.44
903.76001 6006.25 13449.06
907.67999 6008.77 13461.06
913.64001 6013.1499 13455.4
918.44 6013.6602 13461.55
923.52002 6016 13473.54
928.03998 6018.4702 13480.47
932.16998 6018.4302 13483.49
938.52002 6025.04 13503.58
943.72998 6028.0801 13508.55
948.34998 6027.3398 13511.97
952.40002 6030.52 13518.6
957.51001 6032.8198 13530.6
962.77002 6036.0601 13517.04
968.57001 6038.8999 13532.15
973.28003 6038.6802 13540.25
977.64001 6043.6001 13561.22
982.21997 6042.48 13537.91
988.15997 6049.77 13559.35
993.71997 6054.5898 13573.59
998.15002 6052.5601 13570.77
1002.75 6058.75 13591.15
1007.89 6057.3398 13584.71
1013.66 6063.2798 13605
1018.32 6062.54 13603.34
1023.1 6066.1001 13619.83
1027.4301 6070.46 13630.95
1032.96 6071.3301 13641.88
1037.89 6072.0898 13622.74
1042.79 6076.2202 13642.25
1046.39 6076.1899 13647.04
1051.99 6080.8398 13666.26
1057.1899 6083.1099 13674.95
1062.39 6085.3799 13683.63
1067.34 6089.6099 13692.99
1071.0699 6090.25 13695.82
1076.39 6093.1201 13705.87
1081.61 6095.4102 13709.37
1087.39 6100.7402 13724.98
1095.72 6103.4199 13714.78
1101.05 6106.1899 13728.16
1107.42 6111.3198 13748.85
1111.98 6109.77 13750.82
1116.9301 6113.6802 13741.98
1121.83 6117.27 13751.73
923.96002 6018.8599 13440.4
928 6018.23 13440.4
932.10999 6018.0698 13456.88
938.37 6024.0698 13473.85
943.08002 6020.2002 13465.26
948.39001 6027.6401 13485.05
953.21997 6031.9702 13496.17
957.65002 6033.7202 13506.71
962.52002 6034.5 13487.68
968.10999 6036.0801 13499.96
973.65002 6040.9902 13505.71
977.70001 6043.9399 13534.29
982.66998 6045.2598 13518.19
987.5 6045.71 13524.34
993.15002 6051.1499 13539.93
998.60999 6055.3501 13551.05
1002.29 6055.9702 13557.19
1008.15 6058.8999 13560.5
1013.41 6061.7798 13573.86
1017.96 6060.3901 13572.5
1023.06 6065.8301 13593.17
1026.97 6067.7202 13598.73
1033.87 6076.6499 13627.7
1037.52 6069.96 13591.88
1043.1801 6078.48 13619.48
1046.35 6075.98 13618.71
1052.0601 6081.25 13639.3
1056.9301 6081.6299 13645.45
1062.78 6087.6001 13662.42
1066.87 6086.9199 13660.75
1070.91 6089.3999 13667.68
1076.46 6093.5298 13680.55
1081.91 6097.0801 13686.88
1086.59 6096.2402 13686.88
1095.5699 6102.6099 13686.73
1101.49 6105.2798 13700.1
1106.86 6108.2402 13701.64
1112.51 6112.6802 13731.04
1121.23 6114 13718.11
1126.8101 6117.98 13734.21
938.59998 6025.5698 13451.43
944.19 6027.27 13455.32
948.53003 6028.48 13461.17
952.87 6029.7202 13465.36
957.59003 6033.3599 13480.08
963.53003 6037.1099 13466.23
968.84998 6040.6899 13484.46
973.77002 6041.73 13493.62
977.22998 6041.0698 13502.01
983.39001 6046.0698 13494.39
988.34998 6050.9399 13510.18
993 6050.1899 13511.94
998.35999 6053.79 13521.68
1003.03 6056.8101 13533.38
1007.79 6056.7002 13529.67
1013.94 6061.3599 13547.22
1018.53 6063.8198 13554.23
1022.82 6064.4302 13550.23
1027.52 6067.5 13558.61
1032.98 6071.4199 13589.93
1038.21 6074.0098 13574.98
1043.6 6077.4399 13591.37
1047.26 6081.27 13604.53
1051.38 6077.2798 13604.34
1057.54 6085.1099 13627.16
1062.74 6087.3599 13635.75
1067.48 6090.4102 13640.71
1070.99 6089.7998 13642.46
1076.86 6095.77 13659.43
1082.23 6095.48 13657.38
1086.65 6096.6201 13661.57
1091.74 6101.4302 13677.46
1096.33 6103.48 13662.78
1101.45 6105.0898 13671.75
1107.02 6109.1001 13689.61
1112.37 6111.9102 13701.32
1117.13 6114.75 13716.36
1121.3101 6114.3999 13692.78
1126.9 6118.4302 13708.97
943.83002 6024.98 13424.53
957.72998 6034.2402 13456.29
963.57001 6037.3501 13441.08
968.08002 6035.8999 13446.35
973.81 6041.96 13468.37
977.46997 6042.5698 13479.58
982.91998 6043.1401 13462.13
988.46997 6048 13476.35
993.92999 6052.21 13490.87
999.28003 6055.77 13500.51
1003.27 6058.29 13510.85
1008.14 6058.8198 13508.6
1014.4 6064.1099 13527.51
1019.1 6067.21 13534.22
1022.84 6064.5698 13536.77
1027.33 6066.3701 13542.32
1033.24 6072.9702 13565.72
1038.26 6074.2798 13549.7
1043.33 6075.8999 13561.99
1046.67 6077.8198 13570.86
1052.33 6079.3198 13583.15
1056.84 6081.1099 13590.46
1062.48 6085.8501 13606.35
1067.76 6092.0098 13618.23
1071.04 6090.1299 13615.41
1076.73 6091.6602 13624.38
1081.97 6093.9902 13627.97
1086.16 6093.8799 13629.34
1091.25 6098.6899 13645.23
1096.4 6103.8501 13635.81
1101.63 6106.0498 13647.81
1106.63 6106.98 13658.74
1112.01 6109.96 13658.62
1116.75 6112.6499 13685.48
1121.9399 6117.8501 13674.38
973.64001 6040.9199 13440.4
977.81 6044.6602 13458.52
983.26001 6045.2202 13439.41
989.01001 6051.2998 13458.02
993.84998 6051.7598 13464.16
998.90997 6053.5298 13469.8
1002.8 6055.3999 13478.67
1008.76 6058.9399 13483.34
1014.33 6063.73 13500.87
1018.19 6061.7998 13496.39
1023.83 6070.4102 13523.97
1027.38 6066.6201 13517.05
1033.71 6075.7202 13545.99
1037.88 6072.0298 13518.87
1043.0601 6074.27 13532.52
1047.41 6078.6401 13547.04
1053.03 6083.3501 13566.25
1057.54 6085.1001 13573.46
1062.42 6085.52 13577.94
1067.3101 6085.96 13579.01
1070.4399 6086.71 13581.83
1076.6801 6091.3701 13597.71
1082.02 6094.2998 13602.68
1086.8 6094.0801 13604.04
1091.72 6097.9902 13591.9
1096.11 6102.2798 13606.32
1101.12 6103.2598 13615.59
1107.5 6108.4199 13636.16
1111.7 6108.2598 13640.95
993.88 6051.9502 13437.25
998.52002 6051.1802 13437.25
1002.51 6053.7002 13449.23
1008.17 6055.3901 13449.8
1013.95 6061.4302 13470.07
1019.24 6064.4399 13476.78
1022.92 6065.02 13486.24
1027.41 6066.8301 13491.79
1033.23 6072.8701 13513.8
1038.39 6071.52 13492.24
1043.21 6075.1499 13508.71
1046.91 6075.7598 13514.85
1052.33 6079.3501 13517.76
1056.83 6081.0298 13538.53
1062.58 6086.4502 13554.11
1068.23 6091.25 13564.92
1071.62 6089.98 13563.46
1077.0601 6093.5098 13574.86
1082.4 6096.4399 13579.82
1086.96 6094.9702 13580.11
1096.39 6103.8101 13583.85
1101.28 6104.1499 13591.66
1107.22 6106.8799 13606.77
1013.98 6061.6099 13443.16
1019.26 6064.6001 13451.53
1023.75 6066.3701 13463.8
1027.87 6069.5098 13472.08
1033.84 6072.96 13488.54
1038.74 6073.5601 13469.42
1042.8101 6072.8301 13477.9
1047.37 6078.4399 13493.38
1051.92 6076.98 13500.5
1057.25 6079.98 13496.98
1062.29 6084.7998 13524.65
1067.63 6087.8398 13517.8
1071.6801 6090.3301 13524.71
1076.99 6093.1401 13548.21
1081.8 6093.0601 13534.45
1087.48 6097.8799 13547
1092.33 6101.3799 13571.86
1027.47 6067.1602 13441.28
1033.77 6072.5098 13461.92
1038.98 6074.98 13446.99
1042.9399 6073.6201 13452.35
1047.73 6080.4902 13472.31
1053.14 6084.02 13488.77
1057.15 6079.4502 13483.81
1062.91 6084.8799 13499.38
1066.89 6083.5801 13496.36
1071.7 6090.46 13513
1077.47 6095.8398 13528.48
1081.9301 6093.79 13522.34
1047.21 6077.5 13440.15
1052.63 6081.0601 13456.6
1058.05 6084.6299 13467.98
1062.84 6084.5 13459.3
1067.5699 6087.4902 13477.71
1071.62 6090 13484.62
1076.75 6091.75 13480.11
1057.53 6081.6201 13435.82
1062.74 6083.9102 13444.39
1067.26 6085.73 13448.27
1071.1 6087 13452.45
0 0 0 1 0 0 0 1 0 0 0 1 0 0 0 0 0 506 1 0 0
