ply
format ascii 1.0
comment PCL generated
element vertex 76
property float x
property float y
property float z
element camera 1
property float view_px
property float view_py
property float view_pz
property float x_axisx
property float x_axisy
property float x_axisz
property float y_axisx
property float y_axisy
property float y_axisz
property float z_axisx
property float z_axisy
property float z_axisz
property float focal
property float scalex
property float scaley
property float centerx
property float centery
property int viewportx
property int viewporty
property float k1
property float k2
end_header
-86.389999 6662.1602 14195.91
-82.540001 6660.8501 14196.55
-77.470001 6663.8101 14185.02
-91.029999 6674.1299 14202.08
-82.620003 6667.1401 14183.43
-77.5 6666.6499 14176.95
-101.45 6685.5601 14196.64
-96.330002 6686.27 14197.99
-77.629997 6677.52 14173.6
-114.63 6706.8101 14203.32
-106.26 6706.3901 14198.61
-101.65 6699 14198.7
-96.459999 6695.8398 14191.82
-91.290001 6693.27 14187.99
-86.099998 6688.8501 14173.18
-82.309998 6693.6602 14172.71
-77.080002 6685.75 14164.63
-72.019997 6691.8501 14166.87
-66.809998 6683.8599 14163.92
-114.79 6716.3799 14197.14
-110.34 6719.6699 14207.45
-106.33 6710.46 14194.91
-101.83 6710.77 14183.07
-96.629997 6707.5498 14176.11
-91.339996 6696.9399 14169.33
-86.260002 6701.04 14170.85
-82.400002 6701.0098 14174.21
-77.230003 6698.54 14165.34
-71.449997 6698.5298 14168.69
-66.910004 6694.7202 14158.79
-120.93 6735.0801 14203.39
-114.99 6727.9102 14195.1
-110.42 6724.6602 14191.59
-106.5 6721.3501 14191.53
-101.26 6715.52 14179.06
-96.68 6711.0298 14171.15
-90.870003 6709.75 14170.02
-86.410004 6713.2002 14170.19
-67.019997 6704.8999 14153.97
-126.22 6741.8901 14193.36
-120.4 6742.04 14191.68
-115.2 6740.04 14194.33
-110.53 6731.6001 14179.89
-105.93 6726.3301 14173.9
-101.41 6725.73 14174.22
-71.660004 6718.29 14156.01
-67.099998 6713.75 14146.35
-130.37 6756.0098 14195.13
-120.59 6752.2402 14186.83
-115.32 6747.02 14180.94
-110.09 6743.73 14179.11
-77.660004 6735.6401 14162.9
-115.44 6754.5898 14170.57
-110.23 6752.6299 14171.54
-86.879997 6749 14166.68
-71.900002 6739.9399 14149.04
-91.480003 6754.46 14157.29
-86.440002 6765.4399 14146.98
-82.519997 6763.48 14146.28
-77.330002 6763.5601 14142.83
-96.959999 6775.4199 14147.24
-91.760002 6775.46 14148.92
-86.580002 6776.8999 14144.82
-82.68 6776.9302 14148.26
-110.96 6797.3398 14158.58
-101.73 6790.1401 14150.24
-97.150002 6788.8999 14147.54
-91.269997 6786.98 14146.83
-115.75 6810.8101 14155.51
-111.12 6806.8701 14152.34
-106.5 6803.5601 14150.53
-96.669998 6800.3799 14145.35
-91.419998 6798.48 14142.98
-115.87 6817.6499 14143.67
-110.65 6818.3799 14148.46
-102.06 6812.4702 14144.6
0 0 0 1 0 0 0 1 0 0 0 1 0 0 0 0 0 76 1 0 0
