ply
format ascii 1.0
comment PCL generated
element vertex 1703
property float x
property float y
property float z
element camera 0
property float view_px
property float view_py
property float view_pz
property float x_axisx
property float x_axisy
property float x_axisz
property float y_axisx
property float y_axisy
property float y_axisz
property float z_axisx
property float z_axisy
property float z_axisz
property float focal
property float scalex
property float scaley
property float centerx
property float centery
property int viewportx
property int viewporty
property float k1
property float k2
end_header
-1019.95 8203.0596 13913.36
-1012.45 8200.4404 13911.96
-1006.08 8194.1299 13900.1
-994.21002 8188.3101 13895.54
-987.03998 8188.3101 13892.57
-979.79999 8187.6802 13891.59
-974.45001 8189.5601 13889.11
-969.72998 8190.02 13887.42
-963.44 8190.7598 13887.42
-956.81 8188.5098 13883.87
-949.40002 8186.3301 13880.31
-943.65997 8184.8799 13879.81
-940.34003 8197.46 13885.06
-1127 8266.6699 14016.78
-1120.9301 8263.5703 14010.25
-1113.3199 8260.9805 14008.78
-1099.8 8256.3496 14007.23
-1094.8199 8255.2197 14001.18
-1086.1899 8238.5996 13976.17
-1079.58 8237.2402 13963.29
-1072.55 8232.5596 13963.1
-1064.83 8222.5303 13944.71
-1060.26 8224.4697 13943.91
-1053.53 8221.9404 13935.21
-1046.9301 8220.4697 13931.34
-1038.91 8213.9502 13923.34
-1027.28 8204.1699 13912.17
-1021.09 8212.2402 13906.12
-1001.45 8201.9697 13894.06
-995.88 8202.0801 13896.14
-988.60999 8201.3203 13891.88
-981.53998 8202.2598 13893.56
-975.81 8201.0498 13885.84
-971.15997 8202.1201 13883.67
-964.87 8202.8604 13883.67
-958.59998 8203.8496 13887.13
-951.17999 8201.6797 13883.57
-945.52002 8200.9902 13884.37
-941.47998 8207.3799 13879.12
-1140.4 8281.8496 14029.78
-1131.79 8266.2598 14009.54
-1127.67 8277.54 14012.06
-1115.4 8276.3896 14011.97
-1108.65 8274.2402 14008.42
-1100.52 8261.71 13993.41
-1095.02 8256.6699 13980.76
-1087.4 8247.7998 13968.9
-1080.6 8244.9697 13965.74
-1073.03 8236.2695 13946.56
-1066.4 8234.6602 13940.92
-1061.53 8234.3096 13936.26
-1054.7 8231.1201 13927.95
-1047.98 8228.7305 13921.03
-1039.85 8221.4502 13911.74
-1033.97 8219.2402 13909.87
-1029.08 8218.6104 13912.35
-1008.49 8220.25 13898.69
-1003.23 8216.5596 13896.02
-997.37 8214.3301 13894.15
-989.79999 8211.2305 13885.93
-982.98999 8214.3701 13889.8
-977.27002 8213.25 13883.77
-972.19 8217.5703 13886.92
-965.52002 8215.21 13881.68
-946.84998 8212.4805 13881.09
-1140.6 8283.3203 14020.05
-1134 8282.4297 14014.01
-1123.11 8279.5996 14012.96
-1117.15 8289.3701 14009.51
-1109.47 8280.3604 13995.89
-1101.73 8270.7695 13984.36
-1096.04 8264.3496 13970.9
-1088.8199 8258.5195 13964.2
-1081.79 8254.0703 13956.79
-1073.52 8246.2197 13938.9
-1067.6899 8244.5996 13934.95
-1062.41 8241.1504 13925.04
-1055.66 8238.6104 13916.35
-1035.4 8230.5898 13904.8
-1029.64 8229.4502 13907.77
-1023.94 8235.1797 13899.44
-1016.39 8232.3896 13896.29
-1009.61 8229.4102 13891.45
-1003.93 8228.8604 13893.93
-997.88 8225.1104 13889.49
-991.65002 8226.5303 13889.09
-984.27002 8225.0996 13885.22
-979.09003 8228.5996 13887
-973.72998 8230.5801 13886.21
-967.40997 8231.3301 13886.21
-961.53998 8228.9697 13882.66
-954.20001 8227.71 13882.16
-1141.65 8290.9697 14010.09
-1135.9 8296.2695 14014.52
-1129.55 8291.2803 14010.88
-1118.7 8300.8799 14006.07
-1110.7 8289.5703 13988.59
-1102.85 8279.21 13975.78
-1097.77 8277.4102 13970.14
-1090.22 8269.1396 13957.81
-1082.38 8258.5703 13941.61
-1075.02 8257.7305 13935.58
-1069.1801 8256.1104 13931.63
-1064.1899 8254.9404 13925.59
-1011.29 8243.0898 13890.32
-1005.52 8241.8799 13893.2
-999.35999 8237.3604 13887.47
-993.48999 8241.79 13890.63
-985.64001 8236.5303 13881.84
-980.72998 8242.3896 13887.57
-974.90002 8240.5 13880.25
-968.77002 8242.8203 13882.91
-1149.05 8303.4404 14011.07
-1143.99 8307.96 14015.91
-1138 8311.5996 14015.99
-1132.39 8312.1201 14012.52
-1126.8 8312.7803 14010.83
-1118.79 8301.54 13984.35
-1110.99 8291.7402 13969.45
-1103.24 8282.1504 13957.93
-1098.6801 8284.2598 13958.9
-1091.02 8275.21 13945.29
-1084.09 8271.6201 13940.85
-1076.3101 8267.6602 13929.58
-1070.5601 8266.7998 13926.92
-1065.0699 8261.7695 13914.37
-1059.6 8269.3604 13922.75
-1007.01 8254.04 13889.49
-1001.31 8253.3896 13890.29
-994.87 8253.2305 13887.23
-987.84998 8255.0098 13890.29
-981.90002 8252.2002 13879.91
-1159.25 8324.2695 14006.73
-1151.16 8318.71 14012.44
-1145.46 8318.6201 14009.47
-1139.47 8322.3496 14011.24
-1134.6899 8329.0098 14005.92
-1128.26 8323.5498 13995.46
-1119.4399 8312.3701 13979.61
-1112.54 8303.2803 13966.09
-1104.78 8293.6699 13954.58
-1098.58 8289.6201 13945
-1092.84 8289.0303 13945.8
-1085.1899 8279.9902 13932.18
-1077.8101 8279.1201 13926.16
-1071.85 8276.7305 13920.93
-1067.15 8277.9102 13918.84
-1021.12 8270.7002 13892.77
-1014.3 8267.5996 13886.25
-1008.69 8267.8301 13890.02
-1002.7 8264.8301 13886.88
-996.25 8264.7305 13883.9
-988.95001 8264.1602 13883.02
-983.82001 8268.3398 13884.39
-1166.7 8342.6602 14012.9
-1161.38 8339.5498 14008.08
-1152.87 8331.04 14010.34
-1147.47 8333.2402 14011.23
-1141.05 8333.9102 14007.86
-1135.52 8335.0996 13993.36
-1119.84 8315.3398 13961.83
-1112.55 8309.4004 13953.46
-1106.1899 8304.2803 13948.15
-1099.5699 8297.1104 13933.35
-1093.74 8295.8496 13934.56
-1085.9 8291.5996 13928.83
-1079.5 8292.1602 13925.38
-1073.34 8288.2402 13917.58
-1069.02 8292.3799 13918.95
-1061.0601 8286.96 13906.8
-1054.79 8288.4297 13906.4
-1029.8101 8288.8096 13897.31
-1022.44 8281.3799 13888.06
-1016.09 8282.1602 13888.06
-1010 8278.5596 13885.4
-1004.28 8277.9102 13886.2
-997.82001 8277.75 13883.15
-990.21002 8274.7305 13876.63
-1173.6801 8351.6299 14014.09
-1167.63 8355.0898 14010.78
-1163.64 8355.75 14012.47
-1154.6801 8344.1299 14009.52
-1149.6 8348.6797 14014.34
-1143.58 8352.4102 14016.11
-1129.59 8333.3604 13987.64
-1121.6801 8329.0703 13960.62
-1114.39 8323.1299 13952.25
-1106.3 8311.21 13936.9
-1101.92 8314.8496 13940.44
-1095.87 8312.0195 13938.99
-1087.4 8303.0596 13925.39
-1080.7 8301.3203 13918.08
-1075.11 8301.9404 13916.39
-1069.51 8302.4004 13912.93
-1037.29 8290.5703 13895.71
-1030.95 8297.96 13890.02
-1023.86 8292.8701 13884.71
-1017.59 8294.4199 13886
-1011.77 8293.1201 13887.2
-1005.76 8290.1201 13884.06
-999.21002 8289.25 13879.8
-992.23999 8291.6396 13882.37
-1181.77 8368.4404 14017.75
-1174.83 8365.6602 14014.62
-1169.9 8371.3096 14015.16
-1165.46 8368.8496 14011.63
-1156.49 8357.2197 14008.69
-1150.17 8358.7695 14008.28
-1143.78 8353.8701 13995.74
-1136.65 8343.3799 13982.96
-1130.62 8341.0303 13977.74
-1122.92 8338.2402 13953.28
-1115.51 8331.5303 13943.64
-1107.9399 8323.4902 13934.81
-1103.65 8327.9102 13939.63
-1096.55 8317.1396 13923.39
-1089.4 8318.3604 13926.84
-1044.03 8305.6396 13893.33
-1038.53 8300.4805 13889.7
-1032.47 8310.2305 13887.94
-1024.9399 8308.2002 13886.09
-1019.75 8312.0098 13891.32
-1012.98 8303.0303 13881.19
-1007.33 8303.0498 13881.59
-1001.15 8305.4102 13884.25
-1183.6 8381.3896 14015.11
-1176.4301 8377.0703 14009.42
-1171.41 8382.1104 14010.45
-1166.27 8380.5303 14008.2
-1158.51 8371.8496 14010.41
-1145.13 8363.6797 13987.9
-1138.8199 8359.3496 13964.25
-1132.37 8353.8701 13953.81
-1124.47 8349.7197 13949.8
-1117.16 8343.8203 13941.53
-1109.78 8337.3096 13935.27
-1104.66 8335.4902 13929.65
-1098.27 8330.2002 13922.57
-1090.6 8327.5195 13919.52
-1083.87 8325.7305 13912.12
-1052.24 8319.3496 13893.49
-1045.67 8318.6904 13892.52
-1040.16 8313.5195 13888.9
-1026.9301 8324.3701 13890.51
-1020.78 8320.3799 13882.72
-1014.86 8318.4199 13884.33
-1192 8394.3896 14015.61
-1185.45 8394.4902 14014.24
-1178.61 8392.5195 14012.49
-1173.78 8399.0996 14016.08
-1168.42 8395.9902 14011.27
-1160.64 8387.21 14011.8
-1152.9 8378.6201 13994.44
-1145.16 8369.8604 13975.32
-1139.86 8366.9902 13954.33
-1133.8199 8364.6299 13949.11
-1125.7 8358.8896 13942.45
-1118.91 8356.8896 13940.7
-1110.6801 8344.1299 13923.99
-1105.5601 8342.29 13918.38
-1098.88 8341.0498 13917.89
-1092.3101 8340.5703 13918.7
-1053.28 8334.0498 13895.24
-1047.51 8333.3203 13894.36
-1035.98 8338.5 13888.49
-1022.67 8335.79 13885.85
-1016.26 8329.8896 13880.86
-1010.5 8329.1299 13879.98
-1193.75 8406.6797 14013.36
-1186.97 8405.2803 14009.51
-1180.66 8407.1699 14014.17
-1175.49 8411.29 14012.14
-1169.26 8402.0596 13998.67
-1160.72 8387.7998 13990.05
-1153.95 8386.2197 13984.42
-1146.1899 8377.4502 13965.31
-1141.64 8380.0596 13953.47
-1127.04 8368.8203 13936.39
-1119.8199 8363.6904 13929.41
-1112.3 8356.25 13920.1
-1107.6899 8358.3701 13921.06
-1100.5 8353.2803 13915.69
-1054.64 8344.7803 13890.57
-1048.76 8343.2305 13888.32
-1043.8 8342.6201 13890.81
-1037.3199 8349.2402 13883.81
-1029.67 8346.5498 13882.37
-1023.88 8345.6904 13879.81
-1012.55 8346.0801 13885.67
-1201.52 8415.0703 14007.66
-1195.72 8420.6104 14013.83
-1189.15 8420.7002 14012.47
-1182.29 8418.7402 14010.72
-1176.88 8421.2598 14006.03
-1170.96 8414.2305 13994.72
-1162.64 8401.6602 13990.46
-1154.5601 8390.6797 13969.18
-1147.45 8386.6299 13957.94
-1135.26 8375.2197 13942.63
-1128.48 8379.5195 13931.59
-1121.54 8376.5898 13926.78
-1114.46 8372.5 13924.55
-1109.62 8372.9697 13922.78
-1102.01 8364.79 13912.28
-1055.87 8354.5195 13882.74
-1050.38 8356.1602 13885.8
-1045.33 8354.8896 13888.7
-1039.03 8363.0498 13884.26
-1031.67 8362.7402 13886.75
-1215.1801 8435.5996 14015.54
-1204.27 8434.3398 14015.49
-1197.59 8433.7197 14012.93
-1191 8433.8096 14011.56
-1184.11 8431.7402 14008.12
-1177.73 8427.3301 13993.42
-1172.24 8423.4297 13987.33
-1162.8199 8402.9902 13969.99
-1155.72 8399.0898 13960.53
-1148.38 8393.4297 13946.64
-1142.17 8389.9502 13945.61
-1136.71 8385.9297 13937.83
-1129.8 8389.3398 13923.82
-1123.09 8388.1104 13923.35
-1115.25 8378.4502 13911.89
-1110.84 8382.1201 13915.42
-1103.41 8375.3701 13905.8
-1058.12 8372.2998 13889.76
-1052.22 8370.75 13887.51
-1046.08 8367.2695 13886.57
-1040.66 8376.0996 13883.41
-1033.5601 8378.0498 13888.15
-1026.76 8375.8203 13884.61
-1217.3 8450.3096 14017.27
-1205.9301 8445.9102 14012.01
-1199.3199 8445.9004 14008.95
-1192.03 8446.9297 14008.95
-1178.79 8434.9199 13983.37
-1172.63 8426.2803 13969.43
-1164.42 8414.5303 13966.54
-1157.1899 8409.7998 13955.71
-1149.9399 8404.7998 13941.42
-1144.99 8410.6396 13934.79
-1131.66 8403.1699 13924.22
-1124.73 8400.4004 13921.19
-1059.96 8386.9004 13891.46
-1047.51 8378.7197 13883.07
-1042.76 8393.0801 13889.04
-1035.0699 8390.3301 13886
-1219.08 8462.6602 14015.06
-1207.8 8459.0303 14011.08
-1200.7 8461.5 14011.95
-1193.88 8460.0498 14008.02
-1180.29 8445.7002 13978.6
-1173.91 8435.4502 13962.02
-1164.99 8424.5801 13960.43
-1158.5601 8419.7402 13949.6
-1151.72 8417.8799 13940.52
-1146.55 8422.1104 13931.24
-1140.5699 8420.5098 13927.32
-1133 8413.0898 13918.12
-1126.0601 8410.3301 13915.09
-1068.3101 8401.1299 13889.37
-1062.08 8403.6904 13884.78
-1054.4 8394.6396 13881.94
-1049.24 8392.5996 13883.57
-1043.37 8404.5703 13883.91
-1036.3 8400.25 13879.91
-1225.97 8464.4902 14015.11
-1220.83 8474.8398 14011.05
-1209.89 8473.71 14012.69
-1202.5601 8474.6299 14011.01
-1194.0601 8461.3496 13987.54
-1181.01 8450.79 13962.93
-1175.4 8446.1602 13957.18
-1166.03 8432.04 13948.69
-1160.5601 8434.2598 13949.57
-1152.98 8427.0303 13933.13
-1148.12 8433.6396 13927.77
-1133.74 8424.7197 13914.66
-1127.49 8421.0195 13910.26
-1083.72 8412.71 13891.94
-1076.53 8414.1904 13889.85
-1069.77 8412.6396 13885.92
-1062.97 8410.6904 13885.86
-1057.29 8417.6699 13885.58
-1050.96 8406.3096 13882.28
-1235.39 8483.6299 14024.15
-1228.1 8479.21 14016.8
-1222.5 8486.4102 14007.54
-1216.16 8488.5098 14013.97
-1211.29 8489.3203 14015.66
-1204.21 8486.21 14007.48
-1195.25 8469.7695 13978.83
-1187.1 8452.9902 13975.38
-1176.87 8456.7598 13950.63
-1167.84 8445.1299 13947.78
-1161.28 8439.4902 13935.68
-1155.16 8443.0098 13925.03
-1142.01 8431.0898 13920.79
-1102.22 8422.5303 13895.32
-1096.51 8429.1396 13889.88
-1090.86 8429.8799 13889.88
-1085.08 8423.2803 13885.43
-1077.8 8424.0898 13883.75
-1071.72 8427.96 13887.26
-1064.72 8424.5303 13886.25
-1243.63 8494.54 14015.06
-1236.73 8492.8301 14016.71
-1229.55 8489.1797 14010.64
-1224.96 8503.46 14013.05
-1218.13 8502.3096 14012.59
-1212.6 8498.5195 14008.21
-1204.84 8490.6396 13992.19
-1196.1 8475.79 13966.19
-1188.16 8460.5596 13965.31
-1178.37 8467.54 13945.84
-1169.21 8455.0596 13941.64
-1162.75 8450.1904 13930.83
-1155.8 8447.6504 13922.16
-1149.4399 8443.3896 13919.88
-1143.46 8441.8301 13916.04
-1111.89 8439.7803 13898.39
-1103.9301 8435.5898 13894.41
-1091.46 8434.5 13887.03
-1086.16 8438.0498 13887.17
-1079.65 8438.5898 13883.71
-1073.08 8438.6396 13882.43
-1066.66 8439.8604 13887.58
-1059.6 8436.0303 13881.42
-1054.42 8433.9902 13883.05
-1251.97 8517.3496 14032.74
-1245.66 8508.4404 14015.36
-1238.0601 8502.0195 14009.25
-1230.95 8504.6396 14011.81
-1226.85 8516.6104 14012.06
-1219.5601 8512.2803 14006.41
-1213.5601 8505.2197 13995.14
-1205.45 8494.9502 13975.22
-1197.61 8486.5 13961.31
-1190.01 8479.6602 13950.05
-1179.76 8477.4697 13939.69
-1170.25 8462.5996 13931.58
-1163.3101 8460.2197 13924.69
-1157.8101 8462.3301 13923.87
-1151.01 8454.9102 13916.39
-1124.54 8454.4502 13900.89
-1113.61 8452.8398 13897.46
-1105.42 8446.9297 13889.16
-1099.42 8451.4902 13892.26
-1093.23 8448.2305 13885.7
-1087.84 8451.1104 13886.25
-1081.02 8449.2695 13878.87
-1075.14 8454.8701 13886.71
-1068.1 8451.3203 13884.01
-1252.74 8522.5703 14018.71
-1246.77 8521.6904 14014.37
-1241.5601 8526.0098 14014.08
-1232.74 8516.9902 14009.55
-1227.8101 8529.0801 14009.79
-1214.64 8512.79 13985.04
-1206.86 8504.9004 13969.04
-1199.22 8497.8799 13956.01
-1180.88 8491.4502 13940.01
-1172.28 8477.29 13933.27
-1166.27 8481.7598 13925.66
-1158.5601 8473.7998 13918.59
-1140.12 8472.1299 13901.41
-1133.45 8471.6797 13902.23
-1126.1801 8466.7402 13898.67
-1121.29 8467.2695 13896.98
-1114.5 8459.5801 13886.13
-1108.05 8467.0098 13889.28
-1101.42 8466.8896 13895.16
-1089.72 8465.7402 13887.87
-1083.3 8467.1201 13885.77
-1076.8101 8467.9404 13885.77
-1069.96 8466 13885.72
-1260.52 8535.6299 14018.98
-1254.3199 8533.3096 14013.79
-1248.8101 8535.6504 14014.73
-1241.85 8533.7803 14014.61
-1236.21 8541 14014.35
-1220.49 8518.7598 13971.97
-1214.8199 8514.0195 13964.55
-1207.59 8510.0596 13955.03
-1200.95 8510.21 13953.75
-1193.35 8503.46 13944.19
-1182.7 8504.54 13939.04
-1174.5 8493.29 13925.1
-1166.67 8484.6602 13918.46
-1160.24 8486.0996 13916.36
-1141.88 8485.21 13900.45
-1134.77 8481.5898 13896.08
-1127.71 8478.25 13895.17
-1122.8101 8478.7305 13893.39
-1115.9301 8476.71 13891.66
-1108.9399 8473.8496 13888.56
-1102.92 8478.4102 13891.66
-1095.8 8474.4697 13883.83
-1091.41 8478.8096 13886.92
-1084.77 8478.5801 13882.19
-1271.29 8557.4502 14037.01
-1263.05 8552.7695 14024.52
-1256.84 8550.4404 14019.33
-1250.61 8547.9502 14012.36
-1243.54 8545.3604 14011.05
-1237.23 8548.0303 14015.38
-1222.25 8531.04 13969.61
-1216.92 8528.7402 13966.2
-1209.23 8521.5996 13951.49
-1201.8 8516.1904 13941.1
-1195.08 8515.7803 13941.93
-1183.3101 8508.9004 13923.75
-1175.23 8498.5703 13921.82
-1168.14 8495.3496 13913.57
-1149.5601 8486.8604 13898.81
-1143.54 8497.5 13898.21
-1136.52 8494.6602 13895.12
-1129.64 8492.7695 13895.07
-1124.84 8494.0801 13894.66
-1117.33 8487.3896 13886.79
-1111.0699 8490.0898 13892.8
-1104.52 8490.7002 13889.43
-1097.39 8486.7598 13881.59
-1093.0699 8491.7695 13884.28
-1271.36 8563.5996 14024.32
-1264.52 8562.7402 14018.3
-1257.72 8562.0898 14015.66
-1252.63 8561.7598 14010.92
-1245.34 8557.71 14008.75
-1237.98 8553.2197 14001.33
-1224 8543.2598 13965.64
-1217.54 8533.1104 13950.9
-1210.86 8533.0898 13947.85
-1203.65 8529.2803 13940.1
-1196.45 8525.5303 13933.97
-1184.89 8520.2598 13918.44
-1177.14 8512.4404 13922.11
-1169.9399 8508.4297 13912.59
-1157.61 8509.46 13904.07
-1152.61 8509.3398 13902.79
-1145.39 8511.2402 13896.82
-1138.05 8506.0596 13889.9
-1126.5699 8507.1602 13893.69
-1119.35 8502.7402 13888.04
-1105.9 8501.2695 13882.85
-1099.39 8502.2305 13884.54
-1094.96 8506.4102 13885.86
-1088.3 8506.2197 13881.21
-1281.3 8579.5996 14029.74
-1272.25 8569.5703 14011.54
-1266.23 8574.2695 14014.62
-1259.1801 8572.0596 14009.44
-1254.79 8576.5098 14012.52
-1247.25 8570.8496 14007.71
-1239.0601 8560.6699 13989.51
-1232.04 8558.4404 13966.33
-1211.9301 8540.6299 13937.73
-1205.38 8541.5498 13937.73
-1198.0699 8537.0703 13930.41
-1186.26 8530.1699 13912.25
-1178.52 8522.3701 13915.92
-1171.63 8520.7402 13910.33
-1140.11 8521.4805 13892.74
-1133.12 8518.9297 13893.11
-1127.99 8517.8398 13888.79
-1120.97 8515.04 13885.79
-1113.95 8512.1699 13882.7
-1107.1899 8517.6299 13887.06
-1096.75 8520.3301 13886.24
-1288.59 8594.54 14034.29
-1282.0601 8584.6797 14013.98
-1274.66 8585.79 14013.98
-1268.17 8587.4102 14013.58
-1261.21 8585.8701 14007.97
-1256.6 8588.8799 14010.19
-1248.5601 8579.8799 13998.42
-1240.04 8567.46 13978.1
-1233.36 8567.5996 13958.84
-1226.59 8567.21 13959.67
-1221.03 8557.5898 13944.53
-1214.11 8556.0098 13938.93
-1205.85 8550.8096 13930.25
-1199.23 8545.3701 13921.57
-1188.64 8547.2803 13917.78
-1179.67 8530.71 13907.18
-1161.78 8540.1396 13897.49
-1155.29 8535.3301 13888.4
-1148.48 8534.2305 13889.64
-1142.08 8536.1904 13894.37
-1129.41 8528.5703 13883.97
-1122.8 8528.9004 13886.07
-1115.87 8526.8301 13884.25
-1108.6801 8529.0996 13883.43
-1288.77 8595.7598 14013.76
-1284.02 8597.8301 14012.92
-1276.49 8598.1504 14011.65
-1270.09 8600.4404 14010.82
-1262.79 8596.6104 14003
-1257.35 8594.04 13996.13
-1248.86 8581.9102 13979.27
-1240.5601 8571.04 13961.5
-1234.67 8576.75 13951.34
-1227.22 8571.5596 13944.35
-1222.5601 8568.2998 13939.59
-1215.04 8568.4404 13936.62
-1207.34 8561.3799 13923.63
-1201.52 8561.6504 13925.73
-1189.91 8556.4004 13910.3
-1181.1 8547.0996 13911.35
-1168.3 8545.0498 13899.34
-1163.34 8551.5996 13893.84
-1157.0601 8548.4102 13887.38
-1150.24 8547.3096 13888.63
-1143.3 8545.2998 13886.9
-1136.28 8542.7002 13887.2
-1131.45 8544.0098 13886.79
-1124.62 8542.7695 13886.34
-1118.11 8543.9404 13889.79
-1110.49 8543.0195 13883.79
-1298.53 8615.7803 14023.99
-1290.99 8610.5195 14015.32
-1285.29 8611.9297 14013.21
-1278.6801 8612.9102 14013.21
-1272.27 8615.2197 14012.37
-1264.96 8611.3896 14004.56
-1258.46 8601.5898 13985.97
-1250.65 8594.2002 13976.85
-1241.65 8578.5703 13951.36
-1236.2 8587.3301 13944.69
-1228.96 8583.7695 13940.34
-1224.1 8579.0498 13934.72
-1216.1 8575.96 13926.49
-1208.85 8572.0801 13918.68
-1202.6899 8570 13916.96
-1191.29 8566.3096 13904.08
-1169.76 8555.7402 13894.4
-1165.12 8564.6904 13892.81
-1151.61 8563.7002 13892.78
-1145.48 8561.5801 13891.06
-1138.22 8557.2803 13887.12
-1132.25 8556.2998 13882.8
-1126.35 8555.8701 13885.31
-1119.2 8552.2197 13880.96
-1112.3 8556.9102 13884.04
-1306.6801 8630.5801 14028.5
-1299.08 8625.0303 14016.36
-1293.1899 8625.2402 14016.78
-1287.01 8623.46 14009.49
-1280.64 8626.0703 14012.12
-1273.86 8625.9697 14007.38
-1259.92 8611.5498 13979.71
-1251.98 8603.3604 13969.33
-1243.79 8593.2998 13952.94
-1237.39 8595.6299 13935.82
-1230.38 8593.6797 13934.1
-1225.02 8591.4404 13932.3
-1217.96 8589.0596 13925.44
-1210.8101 8586.0195 13918.99
-1204.28 8581.3496 13911.59
-1193.76 8584.04 13909.07
-1159.46 8566.1299 13892.39
-1153.26 8576.0098 13890.47
-1145.87 8570.75 13883.49
-1133.5601 8566.1904 13876.59
-1128.16 8569.6201 13883.87
-1307.58 8636.5195 14015.68
-1300.4399 8634.0898 14007.12
-1294.6899 8635.2002 14010.51
-1289.33 8639.0195 14012.3
-1282.9399 8641.5801 14014.84
-1275.22 8635.1504 13999.83
-1267.1801 8626.4902 13984.22
-1260.77 8617.4004 13965.31
-1252.15 8604.5 13948.82
-1245.6801 8606.4199 13951.87
-1239.97 8613.5703 13942.55
-1231.92 8604.3896 13929.13
-1226.67 8602.9805 13928.69
-1219.37 8598.9805 13919.2
-1212.3199 8596.71 13914.02
-1206.35 8596.0801 13913.17
-1180.0699 8582.1104 13897.05
-1172.9 8578.7305 13887.14
-1167.21 8580.0703 13893.98
-1161.24 8579.2803 13891.44
-1162.79 8590.75 13887.75
-1154.79 8587.3496 13885.1
-1148.03 8586.9199 13885.93
-1140.99 8584.3799 13886.31
-1318.71 8659.5098 14029.34
-1311.8101 8664.46 14016.08
-1302.79 8649.6504 14009.92
-1296.41 8646.6602 14005.16
-1291.63 8654.4199 14013.31
-1283.9301 8648.2305 14001.69
-1275.97 8640.2803 13985.75
-1268.39 8634.7402 13973.71
-1261.87 8624.9199 13955.14
-1254.39 8619.9102 13949.95
-1245.6899 8612.3096 13937.39
-1240.83 8619.5 13929.84
-1233.6801 8616.71 13926.78
-1228.74 8617.54 13928.47
-1221.4301 8613.5303 13918.97
-1214.28 8610.5996 13914.22
-1206.91 8606.0898 13906.92
-1187.4399 8592.9697 13895.14
-1170.34 8603.0596 13886.69
-1164.67 8604.6299 13887.96
-1156.34 8598.8701 13881.49
-1142.73 8597.4805 13885.26
-1132.24 8600.6504 13889.57
-1318.54 8663.9902 14013.97
-1304.89 8663.5898 14010.07
-1299.34 8666.21 14014.39
-1293.24 8665.2197 14008.38
-1284.5699 8652.5703 13986.33
-1275.91 8639.8398 13962.68
-1268.91 8638.2803 13957.09
-1262.96 8638.1699 13954.04
-1256.1801 8632.25 13947.58
-1247.7 8626.21 13937.57
-1241.1899 8627.9004 13920.95
-1234.99 8625.8301 13919.24
-1230.39 8629.0801 13924.83
-1222.72 8622.6504 13911.44
-1215.34 8618.0898 13904.06
-1208.52 8617.5703 13903.21
-1202.4399 8616.2402 13893.83
-1182.5 8605.8799 13889.34
-1172.34 8617.79 13888.24
-1166.5601 8618.5801 13888.24
-1158.74 8616.7598 13888.13
-1151.96 8616.3203 13888.97
-1144.26 8609 13881.64
-1335.7 8692.7002 14039.53
-1328.05 8676.1299 14014.53
-1320.3 8675.5303 14010.21
-1313.67 8676.71 14011.98
-1307.23 8679.1699 14012.83
-1301.3101 8679.3799 14013.25
-1294.6 8674.3398 14000.72
-1285.7 8660.1504 13976.22
-1278.42 8656.8398 13966.32
-1270.24 8647.3701 13949.45
-1264.41 8648.0898 13947.76
-1257.15 8638.9102 13936.05
-1249.49 8638.54 13935.2
-1243.87 8646.5098 13927.22
-1237.0699 8640.4004 13918.99
-1231.5699 8637.3604 13915.94
-1224.8199 8637.3896 13912.97
-1217.4 8632.7002 13903.91
-1210.7 8633.0996 13906.02
-1204.9399 8634.1299 13900.45
-1191.37 8621.4102 13895.12
-1184.51 8620.5596 13890.8
-1177.87 8621.21 13887.42
-1174.13 8630.9004 13887.15
-1160.4 8629.0703 13885.78
-1153.39 8627.0596 13884.07
-1146.4301 8625.3096 13885.74
-1345.26 8710.4102 14029.41
-1336.11 8695.3604 14019.9
-1329.09 8688.5098 14010.42
-1322.4301 8689.5303 14010.42
-1315.66 8689.8799 14010.84
-1309.22 8692.3398 14011.69
-1303.17 8691.7598 14010.84
-1295.49 8680.2998 13987.97
-1286.8101 8667.6699 13966.03
-1279.17 8667.6797 13961.29
-1272.0601 8659.71 13947.06
-1265.87 8658.0098 13941.48
-1258.47 8653.79 13937.57
-1251.16 8650.0898 13931.55
-1244.6 8651.5801 13913.15
-1238.6 8651.0898 13913.99
-1232.76 8645.6904 13907.12
-1225.88 8644.8701 13902.8
-1212.09 8643.0098 13899.74
-1206.1899 8643.1104 13891.21
-1201.13 8643.1396 13891.63
-1193.1801 8634.5098 13894.02
-1186.3199 8633.6602 13889.71
-1179.87 8635.8896 13888.87
-1168.1 8629.9199 13882.84
-1345.49 8711.8604 14021.28
-1319.3 8719.5498 14013.67
-1311.3 8706.1699 14010.1
-1303.45 8693.6699 13991.56
-1296.5 8687.0303 13976.49
-1287.33 8676.8799 13958.37
-1280.28 8675.1904 13951.1
-1272.9301 8665.6201 13934.33
-1267.73 8670.79 13927.93
-1259.8 8662.9102 13930.01
-1252.35 8658.3701 13922.64
-1246.37 8663.9004 13910.75
-1240.37 8663.4199 13911.59
-1227.9399 8659.4297 13902.54
-1221.21 8659.71 13902.96
-1213.5699 8653.5596 13893.04
-1208.47 8659.4297 13895.26
-1202.84 8655.4502 13889.25
-1194.77 8646.04 13890.38
-1188.34 8648.4004 13891.23
-1181.66 8649 13887.77
-1170.2 8645.4502 13885.63
-1172.08 8659.3496 13885.79
-1355.5 8737.8203 14042.1
-1345.6899 8718.7402 14009.78
-1339.79 8719.2803 14013.67
-1333.48 8717.21 14011.89
-1327.05 8719.8604 14014.52
-1320.4399 8727.0898 14003.44
-1311.71 8708.9102 13992.18
-1305.16 8705.0703 13986.08
-1297.6 8694.4199 13964.59
-1287.95 8681.04 13941.31
-1282.1 8687.54 13948.68
-1273.66 8676.4502 13929.3
-1268.63 8676.9199 13925.92
-1261.5601 8675.0596 13925.83
-1254.12 8670.5703 13918.55
-1248.72 8680.2402 13914.78
-1241.55 8671.6797 13902.67
-1236.9301 8674.96 13908.25
-1229.58 8670.96 13898.87
-1222.6 8669.6201 13896.65
-1215.64 8668.3096 13894.54
-1210.0699 8670.9102 13891.51
-1204.66 8668.5703 13888.13
-1196.6899 8659.9404 13890.53
-1189.8101 8659.0898 13886.22
-1183.13 8659.7305 13882.84
-1173.53 8670.04 13880.77
-1365.87 8754.75 14041.31
-1355.3 8736.5098 14017.64
-1348.46 8736.6299 14014.68
-1341.5601 8730.8096 14009.86
-1335.63 8731.2305 14012.06
-1329.03 8732.9199 14011.64
-1320.6 8728.1699 13982.88
-1312.72 8715.5898 13980.59
-1304.85 8708.71 13969.43
-1299.6801 8708.3496 13964.69
-1290.86 8700.6602 13950.57
-1284.23 8701.96 13937.72
-1276.61 8696.5 13927.4
-1270.55 8690.04 13924.77
-1262.66 8682.5898 13915.71
-1256.02 8683.6904 13917.4
-1250.38 8691.7803 13911.09
-1242.72 8685.7695 13902.87
-1238.23 8684.0703 13900.67
-1231.3199 8683.25 13896.36
-1212.02 8684.8701 13891.72
-1206.49 8681.6904 13886.98
-1198.0601 8669.8301 13884.24
-1191.48 8671.2695 13882.13
-1185.98 8680.5596 13882.24
-1180.53 8684.1104 13882.25
-1175.02 8687.3398 13886.14
-1375.03 8769.3096 14043.98
-1366.17 8756.6904 14022.09
-1356.95 8747.1299 14010.86
-1350.36 8748.96 14012.12
-1344.33 8748.8398 14016.44
-1337.89 8745.9902 14013.4
-1330.79 8744.46 14007.82
-1314.46 8727.1602 13976.87
-1306.34 8718.6396 13963.09
-1300.2 8711.8398 13948.04
-1292.2 8709.7402 13942.88
-1285.12 8708.0303 13935.61
-1277.5 8702.5703 13925.3
-1272.34 8702.3301 13922.25
-1264.8 8697.2998 13917.1
-1257.33 8692.7998 13909.82
-1252.03 8703.2598 13907.31
-1244.47 8698.0498 13900.36
-1240.1 8697.1904 13899.52
-1233.41 8698 13897.83
-1225.47 8695.9697 13894.36
-1219.3199 8694.54 13892.25
-1213.62 8696.3496 13887.95
-1208.53 8696.4004 13888.36
-1199.24 8684.5098 13883.95
-1193.73 8687.6104 13886.15
-1187.25 8689.8496 13885.31
-1375.71 8773.6299 14028.56
-1367.34 8764.2197 14011.83
-1359.37 8762.7402 14013.53
-1352.65 8763.7803 14013.53
-1347.17 8767.3398 14011.83
-1340.13 8760.6797 14013.12
-1332.0601 8752.8301 13998.92
-1321.97 8737.1904 13973.57
-1315.59 8734.6699 13966.64
-1307.46 8726.1299 13952.86
-1302.47 8727.0498 13938.32
-1286.8199 8719.5303 13931.82
-1279.54 8716.4902 13925.39
-1274.15 8714.6602 13919.82
-1267.36 8714.9199 13911.28
-1259.58 8708.2998 13912.46
-1246.22 8710.2402 13896.24
-1241.74 8708.7197 13895.82
-1234.09 8708.8096 13892.78
-1227.3 8708.96 13891.51
-1221.04 8706.8203 13889.73
-1215.54 8710.1299 13886.36
-1210.33 8709.3799 13885.51
-1201.05 8697.6299 13882.8
-1195.09 8697.5 13879.84
-1384.21 8794.79 14039.81
-1376.87 8781.0303 14016.59
-1369.52 8778.1904 14011.86
-1361.41 8775.9199 14012.3
-1355.4301 8781.8301 14020.07
-1348.24 8774.29 14011.05
-1341.53 8769.79 14005.39
-1331.97 8752.25 13975.74
-1323.34 8746.2695 13965.86
-1315.62 8740.5703 13952.17
-1308.71 8734.46 13943.98
-1302.08 8730.2002 13932.83
-1295.9301 8734.8496 13926.82
-1288.64 8731.8701 13929.36
-1281.24 8728.04 13921.67
-1275.48 8723.7695 13912.21
-1268.36 8721.7803 13910.44
-1260.66 8715.8203 13902.33
-1255.6801 8728.5996 13901.99
-1248.33 8725.0098 13897.68
-1242.67 8721.1699 13893.38
-1235.9301 8721.79 13889.91
-1229.04 8721.29 13889.07
-1222.75 8719.0098 13885.6
-1217.04 8720.8203 13881.3
-1211.8199 8720.0596 13880.45
-1203.09 8712.3896 13884.25
-1198.28 8720.7305 13882.99
-1191.05 8717.6797 13885.52
-1394.17 8814.0498 14048.43
-1377.46 8790.3301 14008.93
-1370.97 8793.0195 14011.54
-1362.96 8785.8701 14005.91
-1357.34 8794.1699 14017.48
-1348.9301 8784.3701 14004.66
-1342.5601 8776.5098 13993.86
-1334.42 8768.3301 13967.32
-1325.98 8763.7002 13949.23
-1317.6899 8754.2695 13941.49
-1304.38 8745.5898 13933.74
-1296.86 8741.1104 13926.48
-1289.99 8740.9805 13921.75
-1282.45 8736.2998 13912.71
-1277.97 8740.7998 13915.75
-1269.92 8732.5303 13905.45
-1263.5601 8735.8203 13900.29
-1257.1 8738.4902 13895.64
-1250.21 8738.1299 13896.49
-1244.3 8732.6504 13889.57
-1237.79 8734.9199 13888.72
-1230.65 8732.7598 13885.26
-1224.48 8731.3301 13883.16
-1219.21 8736.3896 13883.99
-1213.98 8735.6299 13883.15
-1205.74 8731.5898 13880.96
-1199.25 8727.7803 13883.92
-1394.08 8813.5303 14025.3
-1386.4301 8808.9199 14016.27
-1379.78 8805.1504 14010.29
-1373.4 8808.5898 14014.09
-1365.76 8803.9404 14012.43
-1358.85 8804 14009.39
-1349.96 8791.0898 13993.12
-1343.78 8784.4902 13972.5
-1334.63 8769.7197 13959.2
-1318.97 8762.79 13943.25
-1312.96 8762.8096 13933.01
-1306.47 8759.5898 13933.87
-1299.02 8755.7002 13926.11
-1291.33 8750.0898 13914.12
-1284.83 8752.5303 13914.96
-1279.3 8749.9004 13908.13
-1271.9399 8746.4502 13905.52
-1263.6 8742 13898.18
-1259.5699 8755.6602 13900.85
-1251.5 8747.1699 13888.79
-1246.5 8748.0801 13890.56
-1239.65 8748.04 13887.52
-1232.73 8747.54 13886.68
-1226.3199 8744.46 13881.96
-1220.4301 8751.2803 13885.41
-1216.04 8750.4102 13884.57
-1206.8199 8739.4404 13883.16
-1200.42 8742.5303 13883.66
-1403.99 8832.25 14036.01
-1395.66 8823.4805 14018.88
-1388.63 8822.9102 14016.27
-1382.36 8821.5801 14014.17
-1375.33 8820.9902 14011.55
-1368.05 8818.7197 14013.69
-1359.77 8809.9199 13996.57
-1350.74 8796.1504 13978.96
-1344.36 8788.3398 13968.25
-1336.24 8780.2998 13952.39
-1328.16 8778.0898 13938.19
-1320.46 8772.7002 13936.87
-1313.75 8768.0996 13929.61
-1307.46 8766.25 13922.36
-1300.74 8767.25 13922.36
-1293.96 8767.9199 13918.89
-1286.64 8764.8701 13912.48
-1280.39 8763.1504 13906.91
-1273.61 8757.9404 13901.69
-1265.5 8755.1299 13896.97
-1260.76 8763.9004 13891.87
-1253.84 8763.54 13892.72
-1248.37 8761.21 13889.35
-1241.51 8761.1797 13886.31
-1234.47 8759.8701 13884.21
-1227.66 8760.1504 13884.63
-1222.03 8762.7598 13881.58
-1218.1899 8765.9297 13887.15
-1208.87 8754.2305 13884.56
-1201.89 8753.2197 13878.58
-1404.29 8834.1396 14016.76
-1397.46 8834.9004 14013.29
-1390.46 8834.5098 14012.46
-1384.3 8833.9805 14011.62
-1377.52 8835.04 14011.62
-1370.33 8833.4297 14013.34
-1360.05 8811.7305 13977.25
-1351.86 8803.5 13966.99
-1345.98 8798.9297 13961.42
-1337.65 8795.2002 13953.67
-1329.08 8784.1797 13936.05
-1322.8101 8788.3096 13939.5
-1315.84 8782.04 13929.64
-1309.42 8779.4102 13921.12
-1302.08 8776.3096 13914.62
-1295.54 8778.6201 13913.78
-1287.86 8773.1201 13903.49
-1275.1801 8768.6904 13896.66
-1267.64 8769.9297 13898.35
-1261.6801 8776.2197 13887.69
-1255.59 8775.7402 13888.54
-1250.12 8773.4902 13886.78
-1243.72 8776.7598 13888.96
-1236.99 8777.71 13888.96
-1229.27 8771.6299 13880.79
-1224.1899 8778.21 13882.55
-1219.05 8778.25 13882.97
-1210.4301 8765.5801 13879.04
-1406.13 8845.6904 14012.86
-1398.7 8848.2305 14012
-1392.66 8848.5 14012.43
-1386.62 8848.7695 14012.86
-1379.71 8849.0303 14011.59
-1370.86 8836.8398 13996.54
-1361.58 8821.6602 13970.84
-1353.89 8816.6797 13965.71
-1346.88 8804.75 13948.53
-1338.91 8803.5195 13944.74
-1331.6899 8801.4297 13941.29
-1324.0601 8796.6201 13930.58
-1317.08 8790.3496 13920.72
-1311.14 8790.9004 13917.26
-1304.64 8793.5596 13919.87
-1296.28 8789.4902 13908.74
-1290.14 8788.71 13906.13
-1268.95 8779.0195 13890.71
-1264.03 8792.5996 13891.59
-1257.47 8788.8799 13887.3
-1251.99 8786.6299 13885.54
-1245.33 8788.0996 13883.43
-1238.49 8788.4004 13883.85
-1231.34 8786.4199 13882.18
-1226.13 8792.1504 13882.57
-1415.74 8862.2998 14023.12
-1408.46 8860.3496 14012.38
-1400.79 8861.4297 14010.69
-1393.89 8861.8301 14011.12
-1388.41 8860.1797 14007.24
-1379.74 8849.2305 13989.74
-1369.8 8835.5703 13972.17
-1363.11 8831.5801 13964.42
-1354.66 8821.71 13951.54
-1348.42 8820.4902 13951.14
-1340.66 8815.0195 13940.86
-1334.9301 8822.8398 13931
-1326.14 8810.4297 13928.89
-1319.41 8805.8896 13923.26
-1313.95 8809.75 13925.01
-1304.9 8801.1299 13909.6
-1297.75 8799.3896 13902.34
-1292.3199 8803.5195 13907.48
-1278.26 8795.75 13893.76
-1271.08 8793.75 13892
-1265.6899 8804.1396 13887.81
-1259.46 8802.8203 13887.31
-1253.75 8798.96 13883.03
-1246.96 8799.6396 13879.65
-1240.6899 8803.9902 13886.48
-1233.39 8801.0195 13881.77
-1424.36 8878.0098 14021.33
-1417.1801 8871.3203 14013.7
-1410.8199 8875.2002 14013.67
-1403.39 8877.8799 14014.5
-1396.33 8877.3496 14011.98
-1389.71 8868.5303 13998.27
-1380.75 8855.7305 13976.38
-1371.21 8844.6904 13964.47
-1364.14 8838.25 13952.85
-1356.5601 8834.0703 13949
-1349.9301 8830.4004 13944.72
-1342.05 8824.1299 13933.18
-1335.46 8832.0703 13923.32
-1327.87 8821.9297 13925.01
-1321 8816.4502 13916.42
-1314.92 8816.2598 13911.78
-1306.7 8813.2803 13905.3
-1299.6801 8812.54 13901.08
-1280.17 8808.8896 13892.5
-1272.85 8805.9502 13887.79
-1267.7 8818.0801 13887.8
-1261.34 8815.96 13886.05
-1256.1801 8816.0195 13886.48
-1249.75 8819.2998 13888.66
-1242.3199 8815.5303 13882.69
-1235.58 8816.6201 13884.38
-1426.48 8891.2695 14020.08
-1419.41 8885.3301 14013.64
-1412.79 8887.5996 14011.08
-1405.48 8891.0898 14013.17
-1398.14 8888.9004 14008.04
-1390.64 8874.4102 13985.42
-1382.3 8865.6504 13969.93
-1372.49 8852.96 13955.42
-1365.1801 8850.6104 13948.6
-1357.96 8843.1797 13941.3
-1351.9399 8843.5703 13943.43
-1343.53 8833.8896 13925.07
-1329.24 8831.0303 13917.33
-1322.97 8829.6602 13915.23
-1317.12 8831.0098 13913.03
-1289.02 8822.21 13888.69
-1282.08 8822.0303 13891.23
-1269.7 8832.0303 13887.79
-1262.99 8827.5 13882.25
-1433.8199 8898.7402 14012.69
-1427.6899 8898.7695 14009.73
-1421.26 8896.8799 14009.69
-1415.14 8902.4102 14012.26
-1407.9301 8906.6201 14014
-1399.46 8897.25 13999.04
-1391.42 8879.4297 13971.22
-1383.34 8872.3096 13958.35
-1374.76 8867.5898 13954.94
-1367.09 8862.9805 13946.03
-1359.96 8856.21 13938.31
-1353.08 8851.0195 13933.12
-1346.03 8850.3096 13928.9
-1337.3 8844.29 13919.07
-1330.85 8841.7197 13912.16
-1323.97 8842.0801 13912.59
-1318.84 8842.5596 13909.21
-1296.16 8835.5703 13890.35
-1290.9399 8835.3604 13887.4
-1283.99 8835.1699 13889.95
-1430.33 8915.2305 14013.51
-1423.9 8913.4102 14013.54
-1417.63 8918.0801 14014.77
-1407.96 8906.7695 13992.13
-1399.86 8899.7998 13980.96
-1394.26 8897.54 13977.61
-1385.26 8884.6904 13955.76
-1376.1801 8876.7197 13947.21
-1368.62 8872.9004 13939.56
-1361.48 8866.1104 13931.86
-1354.83 8862.4404 13927.59
-1347.53 8860.21 13922.46
-1339.16 8856.5898 13916.42
-1332.96 8855.7305 13912.21
-1298.33 8850.3701 13891.66
-1293.8101 8855.04 13896.36
-1285.9 8848.3203 13888.65
-1278.55 8845.3799 13883.95
-1273.58 8858.9902 13884.77
-1426.12 8927.29 14011.73
-1418.98 8932.0996 14012.96
-1409.53 8916.71 13985.64
-1401.29 8908.9297 13973.22
-1394.51 8899.1299 13956.58
-1377.59 8885.8203 13939.49
-1369.89 8881.1396 13930.5
-1363.62 8880.0801 13931.79
-1356.71 8874.7402 13924.93
-1348.66 8867.6396 13912.15
-1342.65 8879.6396 13908.65
-1335.04 8869.5498 13910.46
-1329.15 8876.6797 13901
-1322.16 8864.7998 13900.21
-1307.78 8867.4004 13898
-1300.38 8864.3301 13891.61
-1295.11 8863.9199 13886.89
-1287.79 8861.3301 13885.66
-1280.33 8857.7197 13881.39
-1275.58 8872.9502 13884.72
-1420.04 8938.7803 14001.33
-1410.0601 8920.0996 13968.9
-1402.5699 8917.0498 13962.44
-1396.3101 8910.6504 13952.62
-1388.0699 8902.7002 13938.52
-1380.01 8901.46 13942.01
-1372.04 8895.1201 13930.42
-1364.89 8888.3203 13922.73
-1358.85 8888.7695 13924.94
-1350.66 8880.7998 13910.82
-1344.52 8891.9902 13906.05
-1335.92 8881.1797 13906.53
-1323.12 8877.0801 13895.85
-1315.97 8875.8203 13893.76
-1309.48 8878.9502 13894.16
-1302.1899 8876.6797 13889.03
-1297.51 8880.3604 13890.69
-1289.8199 8875.29 13885.6
-1282.33 8871.5303 13879.65
-1420.45 8941.3701 13983.32
-1411.63 8930.0195 13962.41
-1404 8926.1602 13954.68
-1397.01 8920.6904 13946.13
-1389.41 8916.8701 13938.5
-1381.17 8908.9004 13931.67
-1375.02 8914.4199 13926.96
-1366.6899 8905.75 13927.85
-1360.49 8899.4697 13919.73
-1353.16 8897.2305 13914.6
-1345.89 8901.0703 13898.32
-1330.85 8888.0195 13895.38
-1324.59 8886.96 13889.39
-1318.02 8889.6299 13891.99
-1311.54 8892.9199 13894.08
-1304.45 8892.1104 13889.79
-1291.85 8889.25 13885.53
-1284.46 8886.2998 13880.84
-1430.49 8954.6396 13988.34
-1421.38 8947.1699 13970.34
-1413.84 8944.0098 13962.28
-1406.08 8939.3398 13953.3
-1398.6899 8931.4102 13940.89
-1390.8199 8925.9199 13930.65
-1384.15 8928.1504 13928.1
-1375.84 8919.71 13923.49
-1368.4301 8917.1104 13922.19
-1362 8909.3604 13913.25
-1355.27 8911.0596 13912.82
-1339.63 8905.8896 13901.32
-1332.8199 8901.1797 13894.03
-1319.97 8902.79 13890.65
-1312.85 8901.8398 13884.67
-1306.51 8906.1299 13889.78
-1302.01 8911.1299 13883.3
-1293.28 8899.1299 13879.07
-1285.87 8902.0596 13883.36
-1430.8199 8962.2305 13977.96
-1422.7 8955.4697 13961.3
-1415.64 8955.4004 13956.59
-1407.64 8949.25 13946.79
-1400.76 8944.6504 13939.58
-1393.52 8943.25 13935.73
-1384.97 8933.4404 13924.63
-1369.7 8925.3896 13913.18
-1363.99 8922.3799 13910.19
-1357.15 8923.4199 13910.19
-1348.35 8917.3604 13900.39
-1341.36 8917.3896 13897.36
-1334.79 8914.3398 13892.67
-1329 8916.5498 13891.81
-1321.92 8915.96 13889.29
-1315.28 8918.29 13888.42
-1307.96 8916.0098 13883.31
-1301.83 8915.8701 13880.27
-1288.36 8919.3096 13888.38
-1440.79 8980.4199 13981.61
-1431.72 8967.8701 13963.28
-1424.27 8965.3799 13954.78
-1416.5601 8961.21 13943.69
-1408.8101 8956.6904 13936.41
-1402.3101 8954.5498 13933.07
-1394.8 8951.4697 13926.62
-1386.76 8945 13920.73
-1379.39 8942.7695 13915.61
-1371.47 8936.8896 13909.2
-1366.51 8938.8301 13913.93
-1357.29 8930.1504 13898.58
-1343.84 8933.8398 13901.1
-1330.84 8928.9102 13889.18
-1324 8929.9297 13889.18
-1318.24 8938.3301 13886.11
-1311.14 8937.7197 13883.59
-1304.3199 8932.9805 13883.59
-1297.83 8930.4102 13884.06
-1449.3101 9000.3799 13993.43
-1441.9 8992.8096 13977.22
-1433.83 8981.1201 13961.94
-1426.34 8978.4297 13951.67
-1417.8 8974.5498 13942.27
-1410.73 8968.9199 13932.05
-1404.48 8968.4004 13931.23
-1396.7 8963.7002 13922.26
-1388.8 8958.1699 13919.33
-1380.92 8952.6602 13909.1
-1373.62 8950.8701 13909.07
-1367.39 8944.6201 13901.05
-1359.67 8945.7998 13901.05
-1354.0699 8955.2002 13893.64
-1345.55 8945.2402 13895.51
-1338.73 8940.6699 13889.92
-1332.91 8942.7402 13887.36
-1325.34 8939 13881.43
-1319.16 8944.6201 13885.67
-1311.9399 8943.1504 13881.82
-1306.13 8945.3398 13880.95
-1298.88 8943.71 13882.68
-1449.45 9001.25 13972.8
-1442.96 8999.4404 13965.56
-1435.15 8989.3604 13952.81
-1427.78 8987.4697 13943.79
-1419.62 8986.0703 13938.24
-1412.0699 8983.0498 13931.88
-1405.9 8977.4297 13923.36
-1398.76 8976.8799 13920.84
-1390.24 8973.1104 13920.43
-1382.8199 8964.9697 13906.36
-1376.45 8969.3301 13904.18
-1368.79 8959.5498 13902.17
-1361.3 8956.4902 13895.8
-1355.9399 8967.5596 13890.97
-1347.28 8956.7402 13891.51
-1340.9301 8955.3604 13889.43
-1335.9301 8963.0098 13886.78
-1328 8956.9297 13885.97
-1320.25 8957.9199 13884.28
-1314.09 8957.79 13881.25
-1308.65 8962.6201 13885.92
-1301.01 8958.3496 13882.11
-1459.54 9025.3496 13985.35
-1451.6801 9015.1201 13970.91
-1444.55 9009.3496 13959
-1437.52 9004.2305 13953.96
-1429.62 8999.0498 13939.84
-1420.92 8994.3398 13929.19
-1413.75 8993.7598 13926.59
-1407.96 8990.6104 13921.92
-1391.64 8982.1904 13912.64
-1385.09 8979.6699 13905.84
-1370.8101 8972.7197 13900.75
-1364.15 8975.2402 13901.57
-1348.89 8967.4297 13886.25
-1342.65 8966.8604 13885.43
-1336.83 8969.0801 13884.56
-1330.02 8976.5195 13884.11
-1322.4301 8972.7197 13885.38
-1316.5 8974.2598 13884.95
-1310.7 8976.6699 13885.85
-1470.23 9041.9297 13988.1
-1460.48 9031.1699 13972.42
-1452.21 9018.4404 13954.13
-1446.27 9020.0703 13953.7
-1438.71 9011.6504 13943.55
-1431.59 9011.4297 13937.13
-1422.85 9006.5195 13924.71
-1415.3101 9003.6504 13920.04
-1409.64 9001.3604 13916.72
-1402.48 9000.7598 13914.12
-1393.15 8991.9199 13904.41
-1379.28 8987.7695 13899.28
-1366.23 8988.9199 13890.73
-1357.4301 8983.2002 13891.71
-1352.54 8991.6699 13890.3
-1344.88 8981.71 13886.61
-1339.04 8983.9297 13885.74
-1331.04 8983.4004 13883.14
-1323.86 8982.4404 13877.16
-1317.9399 8990.0596 13887.37
-1480.95 9063.9902 14002
-1472.38 9055.1602 13986.61
-1461.6801 9038.5898 13961.99
-1454.47 9032.46 13953.92
-1447.46 9027.4805 13943.28
-1440.26 9021.3896 13935.29
-1433.16 9021.3301 13930.57
-1425.2 9021.3896 13925.84
-1417.64 9018.5195 13921.18
-1411.71 9014.5498 13915.26
-1404.14 9011.46 13908.83
-1395.3199 9005.9102 13904.22
-1381.5601 9002.6299 13900.43
-1367.41 8996.6699 13891.1
-1358.42 8989.7803 13880.07
-1353.35 8997.0801 13888.5
-1347.27 9003.5996 13886.78
-1341.37 8999.5498 13888.07
-1333 8996.5801 13881.71
-1326.9 9003.04 13887.19
-1481.46 9067.1104 13983.42
-1472.52 9056.0303 13966.06
-1463.02 9046.8701 13952.9
-1456.6 9045.6602 13952.44
-1449.4399 9039.8701 13940.54
-1442.5 9035.4102 13935.07
-1426.63 9030.46 13918.02
-1419.59 9030.9004 13918.46
-1413.61 9026.7197 13910.77
-1405.8199 9022.21 13903.6
-1397.24 9018.2803 13901.51
-1383.46 9015 13897.72
-1376.3199 9008.8096 13889.64
-1369.29 9009.0498 13888.39
-1362.21 9014.8301 13885.33
-1355.0601 9008.4805 13882.86
-1350.1801 9023.0303 13884.78
-1342.97 9010.29 13882.86
-1335.2 9011.4502 13882.86
-1482.41 9072.9004 13970.46
-1473.86 9064.2598 13956.87
-1465.53 9062.3701 13953.46
-1451.41 9052.1104 13936.11
-1443.95 9044.4805 13927.24
-1436.0699 9045.21 13922.07
-1429.24 9046.9697 13921.63
-1421.37 9042.25 13912.7
-1415.4301 9038.2803 13906.79
-1408.23 9037.6797 13904.2
-1385.48 9028.1797 13896.26
-1378.84 9025.3096 13893.28
-1371.67 9024.7305 13890.78
-1365.27 9035.1299 13884.65
-1357.55 9024.9902 13886.49
-1345.53 9027.4502 13886.06
-1337.15 9024.6396 13881.39
-1499.08 9098.1797 14005.18
-1491.1 9087.79 13989.07
-1484.4399 9085.3096 13967.69
-1476.14 9078.29 13956.61
-1467.27 9073.1396 13948.19
-1458.83 9059.5 13928.62
-1452.85 9061.1299 13928.18
-1445.53 9054.3701 13920.65
-1438.29 9059.2197 13921.83
-1423.1801 9053.7598 13908.62
-1417.23 9049.79 13902.71
-1409.77 9047.5596 13897.62
-1393.85 9042.2598 13891.77
-1387.51 9041.3799 13894.77
-1380.73 9037.6797 13890.56
-1373.92 9039.5498 13891.81
-1367.27 9048.3203 13883.17
-1358.79 9039.1201 13886.28
-1352.62 9039.3701 13886.71
-1347 9043.2803 13888.43
-1500.28 9105.46 13993.01
-1491.65 9091.0898 13972.26
-1486.1899 9096.04 13962.32
-1477.73 9088.04 13948.29
-1468.87 9083.04 13941.58
-1460.22 9073.71 13928.44
-1455.24 9076.0195 13929.26
-1448.42 9072.5195 13926.74
-1440.26 9071.6104 13919.07
-1432.09 9065.0498 13905.86
-1424.87 9064.5098 13903.36
-1418.8199 9065.6201 13905.05
-1412.21 9063.25 13899.96
-1396.01 9056.2598 13891.54
-1388.89 9056.1904 13894.1
-1382.72 9050.71 13887.38
-1375.4 9049.2695 13883.54
-1360.77 9052.3096 13884.79
-1354.47 9051.75 13883.98
-1348.84 9055.6104 13885.61
-1510.59 9124.3896 13996.11
-1500.23 9110.5996 13978.77
-1493.38 9101.6602 13965.19
-1487.4 9103.4404 13951.85
-1478.6 9098.9004 13942.92
-1470.87 9095.3799 13938.72
-1462.21 9086.04 13925.59
-1457.23 9088.4102 13926.48
-1449.34 9078.2598 13913.79
-1441.83 9081.4902 13912.46
-1434.6801 9081.4102 13907.74
-1427.2 9079.3398 13904.35
-1420.63 9077.1797 13901.04
-1413.4 9076.5801 13898.45
-1405.39 9070.8896 13893.87
-1397.78 9067.7695 13887.45
-1390.15 9064.4199 13885
-1385.11 9066.3496 13889.64
-1377.4 9062.46 13882.05
-1369.48 9062.9805 13882.49
-1512.09 9133.4502 13988.12
-1501.99 9121.3301 13973.38
-1495.01 9111.5703 13958.56
-1489.15 9114.1504 13946.46
-1479.8101 9106.3398 13932.54
-1472.2 9103.6396 13929.59
-1464.47 9100.1201 13925.39
-1458.41 9095.79 13916.02
-1450.95 9093.9004 13914.32
-1436.76 9094.6104 13906.22
-1428.63 9088.4004 13896.49
-1422.4 9088.54 13895.24
-1415.2 9088.1504 13894.43
-1407.3 9083.21 13891.02
-1399.95 9081.8301 13887.27
-1392.6801 9080.9404 13888.58
-1387 9078.7305 13886.88
-1373.97 9092.7002 13884.55
-1512.63 9136.71 13971.29
-1502.53 9124.5898 13956.56
-1497.1801 9124.79 13957
-1490 9124.8496 13939.38
-1481.95 9119.5498 13930.99
-1474.3101 9116.7002 13926.35
-1466.73 9114.1504 13925.09
-1460.36 9107.96 13911.45
-1452.67 9104.6504 13909.03
-1446.13 9108.5596 13908.95
-1438.72 9106.9902 13903.43
-1431.46 9106.4004 13900.84
-1424.2 9100.04 13891.12
-1417.22 9101.1299 13891.12
-1409.35 9096.4805 13889.57
-1402.38 9097.5596 13889.57
-1394.0601 9089.9404 13880.64
-1389.14 9092.75 13886.61
-1380.67 9089.79 13880.27
-1375.85 9105.0898 13881.77
-1522.98 9155.6699 13981.65
-1513.25 9145.9502 13963.38
-1504.55 9136.8398 13952.04
-1497.1 9129.8203 13942.68
-1491.48 9133.9199 13931.47
-1484.23 9133.5801 13930.67
-1476.04 9127.4004 13920.95
-1468.83 9127.21 13921.84
-1462.62 9122.04 13911.23
-1454.63 9116.9805 13906.15
-1439.27 9116.1797 13895.54
-1433.28 9117.9697 13896.79
-1426.53 9114.9297 13892.15
-1419.02 9112.6904 13887.07
-1411.65 9111.3203 13890.53
-1396.73 9107.3398 13885.52
-1391.42 9107.6396 13887.66
-1383.1801 9106.3301 13883.82
-1533.9301 9178.0195 13991.38
-1524.21 9163.0703 13971.14
-1515.14 9157.3301 13957.52
-1505.9 9145.0498 13942.8
-1499.13 9142.2197 13939.86
-1493.64 9147.1396 13929.89
-1486.11 9145.1104 13926.51
-1478.1801 9140.6104 13919.38
-1469.88 9133.75 13910.11
-1463.59 9133.7002 13907.08
-1457.01 9131.8896 13907.16
-1449.92 9132.46 13902
-1441.89 9132.7197 13899.06
-1435.48 9132 13896.48
-1428.6 9128.1396 13890.6
-1421.33 9127.5303 13888.02
-1413.8199 9125.3398 13890.22
-1406.41 9123.7402 13884.7
-1398.98 9122.0195 13884.78
-1393.41 9120.6904 13884.42
-1385.42 9121.0703 13883.17
-1534.9 9183.7803 13978.36
-1517.1899 9169.7598 13954.66
-1508.21 9159.0898 13942.46
-1501.03 9153.8096 13935.78
-1495.53 9158.7197 13925.81
-1487.55 9154.0098 13916.9
-1480.04 9152.1299 13915.21
-1472.01 9146.96 13908.53
-1465.3101 9144.4502 13901.76
-1452.29 9147.3604 13903.01
-1443.41 9142.3799 13890.64
-1436.29 9142.8203 13891.08
-1430.5 9140.2998 13886
-1423.65 9142.4404 13889.03
-1414.71 9136.8799 13884.47
-1408.3199 9136.1299 13881.89
-1401.01 9135.2305 13883.22
-1388.1801 9139.2598 13889.19
-1543.24 9201.1504 13977.07
-1536.28 9192.0596 13969.15
-1527.37 9187.4805 13952.95
-1518.83 9179.6602 13947.97
-1509.98 9169.8604 13937.11
-1503.03 9165.9902 13931.15
-1496.73 9166.0801 13915.3
-1490.38 9171.3896 13921.63
-1481.03 9163.8398 13911.12
-1473.6 9156.8496 13901.86
-1467.8199 9160.1201 13903.92
-1460.54 9153.9902 13895.98
-1453.73 9156.4102 13895.1
-1445.63 9156.46 13890.38
-1438.11 9154.3799 13887
-1432.97 9156.0303 13888.25
-1425.45 9153.9502 13884.87
-1411.0601 9159.7695 13884.42
-1396.4399 9146.4199 13880.04
-1552.51 9218.5098 13984.69
-1543.7 9203.9199 13969.67
-1538.0699 9202.79 13963.7
-1528.24 9192.7598 13949.38
-1520.05 9187.0303 13937.45
-1512.02 9182.21 13934.17
-1505.2 9179.2197 13929.54
-1499.54 9183.2998 13918.32
-1491.98 9181.2598 13914.94
-1483.58 9179.5801 13913.34
-1475.99 9171.7002 13902.75
-1469.27 9169.1797 13895.99
-1463.04 9169.6699 13898.12
-1456.1899 9171.9297 13895.55
-1447.45 9167.9697 13886.21
-1440.45 9169.2998 13887.98
-1435.17 9170.1201 13887.98
-1427.74 9168.7002 13884.16
-1420.14 9171.9004 13882.82
-1412.16 9166.8496 13885.05
-1553.55 9224.6797 13982.43
-1545.64 9215.4697 13965.44
-1538.14 9208.6104 13950.59
-1529.89 9202.6504 13942.67
-1522.79 9203.6104 13940.89
-1513.75 9192.75 13927.03
-1506.96 9189.9805 13924.18
-1501.4301 9194.8799 13914.2
-1485.01 9188.4199 13903.63
-1478.37 9186.46 13902.02
-1472.03 9186.4004 13899
-1465.15 9182.8896 13896.51
-1458.6899 9187.6904 13897.75
-1450.0699 9184.5303 13889.67
-1436.97 9181.6504 13883.79
-1429.9301 9182.75 13883.79
-1421.37 9179.8604 13884.77
-1564.41 9240.4805 13991.01
-1554.51 9230.3701 13969.31
-1546.89 9222.9004 13954.99
-1540.61 9223.3896 13949.82
-1531.8101 9214.1904 13938.45
-1523.85 9209.9805 13927.42
-1516.84 9211.4697 13923.58
-1509.27 9204.0303 13923.79
-1503.59 9208.0996 13912.57
-1496.01 9206.0801 13909.18
-1486.88 9200 13899.5
-1480.09 9197.1504 13896.57
-1473.61 9196.2695 13892.3
-1460.39 9198.3799 13892.3
-1452.02 9196.9404 13886.79
-1444.97 9198.0498 13886.79
-1439.3101 9196.5703 13884.75
-1432.26 9197.6699 13884.75
-1555.76 9237.7998 13958.84
-1549.11 9236.1504 13953.32
-1542.53 9234.9297 13945.58
-1534.01 9227.4199 13936.8
-1526.59 9226.5703 13930.84
-1517.42 9215.0303 13917.43
-1510.75 9213.0801 13915.84
-1505.89 9222.1699 13912.15
-1498.14 9219.1396 13905.84
-1489.5601 9216.5801 13902.92
-1482.35 9211.1904 13896.18
-1476.14 9212.0195 13894.49
-1469.64 9211.0303 13895.83
-1461.87 9213.4502 13893.24
-1453.98 9209.3301 13883.91
-1447.05 9211.2695 13885.16
-1441.51 9210.6201 13884.36
-1434.4399 9211.7197 13884.36
-1557.99 9251.0498 13957.16
-1551.1801 9248.5098 13950.32
-1544.1899 9244.8203 13938.84
-1535.65 9237.3096 13930.07
-1528.36 9237.2695 13925.35
-1519.47 9227.4297 13914.53
-1514.1899 9234.0596 13914.33
-1491.02 9225.6201 13894.96
-1484.34 9223.5898 13893.29
