ply
format ascii 1.0
comment PCL generated
element vertex 95
property float x
property float y
property float z
element camera 1
property float view_px
property float view_py
property float view_pz
property float x_axisx
property float x_axisy
property float x_axisz
property float y_axisx
property float y_axisy
property float y_axisz
property float z_axisx
property float z_axisy
property float z_axisz
property float focal
property float scalex
property float scaley
property float centerx
property float centery
property int viewportx
property int viewporty
property float k1
property float k2
end_header
1047.78 4905.7002 14210.39
1022.16 4921.9102 14203.47
1030.4301 4912 14198.13
1040.65 4920.8101 14208.98
1020.8 4934.3398 14202.43
1024.66 4933.9199 14205.59
1037 4924.52 14206.26
1001.87 4950.3901 14201.49
1005.86 4950.6099 14204.31
1009.08 4947 14200.46
1010.8 4938.48 14201.71
1014.35 4936.5498 14200.54
1017.19 4935.9702 14200.54
1027.49 4947.5498 14210.3
1033.23 4941.8599 14208.68
1036.14 4936.8901 14205.32
999.25 4952.1299 14202.66
1007.7 4959.6299 14197.85
1011.78 4960.2002 14203.83
994.84003 4967.0898 14202.63
998.97998 4967.98 14205.21
1001.71 4964.3198 14203.11
1004.33 4962.5498 14201.85
1010.72 4972.0498 14201.36
1014.43 4973.21 14208.76
1016.5 4963.9199 14210.27
1020 4964.0801 14214.84
1022.89 4963.6299 14213.1
991.15002 4985.8999 14202.77
994.02002 4982.8701 14200.34
1001.53 4980.6802 14207.06
1004.03 4975.8101 14203.7
1007.38 4977.6099 14212.61
1013.26 4984.5698 14204.86
1016.57 4983.71 14206.52
982.23999 4996.1401 14204.57
985.38 4991.8901 14201.07
989.07001 4990.46 14201.31
993.27002 4996.5801 14198.87
996.72998 4996.4199 14206.76
1000.23 4991.5498 14208.22
1005.37 4997.29 14207.43
1007.36 4989.7998 14211.62
976.90997 5007.0698 14199.5
979.98999 5007.54 14202.41
984.31 5006.6899 14202.41
988.25 5006.4502 14210.3
991.26001 5001.4702 14200.47
996.07001 5010.6401 14206.68
999.51001 5007.8701 14207.42
1002.78 5004.25 14210.05
975.31 5016.7798 14199.47
978.96002 5017.5898 14197.23
983.22998 5021.52 14210.22
987.08002 5020.7598 14210.22
991.10999 5018.4199 14212.36
994.15002 5016.0801 14209.78
963.34003 5035.0498 14200.31
965.81 5032.2998 14196.22
969.71002 5031.75 14201.04
974.53998 5033.4399 14208.19
979.17999 5036.71 14206.72
982.01001 5033.2002 14209.36
985.28998 5032.04 14207.95
956.91998 5043.4199 14202.66
962.94 5051.3101 14205.94
965.45001 5046.0801 14199.44
968.52002 5046.3901 14204.01
972.71002 5044.73 14205.91
949.45001 5062.3101 14201.23
959.5 5054.3599 14201.79
965.23999 5063.3901 14207.97
968.17999 5060.3599 14205.55
971.13 5060 14210.37
944.53003 5079.0698 14203.77
951.62 5073.8901 14201.84
954.28998 5072.02 14202.33
957.60999 5068.27 14200.26
938.27002 5088.8398 14197.38
942.67999 5090.8398 14202.87
947.45001 5092.0801 14208.6
950.82001 5088.46 14204.77
954.08002 5087.02 14206.77
956.57001 5084.1001 14204.35
938.09998 5104.3701 14203.21
940.71997 5102.1099 14200.55
944.91998 5102.9399 14204.87
949.60999 5103.6802 14209.19
953.08002 5100.5601 14206.78
956.84003 5099.04 14208.77
932.28003 5116.8599 14202.29
935.98999 5114.9702 14201.13
940.83002 5119.21 14210.68
943.72998 5115.6802 14206.86
929.13 5121.8198 14205.61
0 0 0 1 0 0 0 1 0 0 0 1 0 0 0 0 0 95 1 0 0
