ply
format ascii 1.0
comment PCL generated
element vertex 180
property float x
property float y
property float z
element camera 1
property float view_px
property float view_py
property float view_pz
property float x_axisx
property float x_axisy
property float x_axisz
property float y_axisx
property float y_axisy
property float y_axisz
property float z_axisx
property float z_axisy
property float z_axisz
property float focal
property float scalex
property float scaley
property float centerx
property float centery
property int viewportx
property int viewporty
property float k1
property float k2
end_header
307.44 5935.7598 14179.66
315.64999 5939.8701 14169.52
321.06 5944.8901 14182.15
325.67001 5945.54 14190.02
329.79001 5947.5601 14185.82
338.48001 5949.6001 14188.02
347.91 5954.2998 14202.41
326.23999 5955.8501 14170.81
330.01999 5951.8198 14167.43
338.82999 5955.6401 14173.87
343.32001 5954.1099 14172.77
366.85999 5964.3398 14192.73
326.60001 5962.4399 14171.29
330.75 5964.9302 14170.15
334.10001 5963.3799 14170.72
339.31 5964.0601 14165.43
344.01001 5966.0698 14172.72
352.47 5963.5298 14173.58
356.39001 5962.0298 14172.48
367.09 5968.0098 14172.95
371.12 5968.1802 14177.76
344.56 5975.6602 14167.04
349.14999 5975.4502 14165.27
353.64001 5973.6699 14169.28
357.04001 5972.79 14169.57
375.64999 5976.3198 14169.22
384.85001 5976.2598 14172.37
328.22 5981.5801 14159.93
332.19 5980.5898 14148.64
335.76001 5982.6201 14157.68
345.19 5986.5098 14162.44
349.78 5986.2402 14162.44
354.20999 5983.25 14163.59
357.67999 5983.54 14166.64
362.70999 5981.0498 14170.93
368.31 5987.7598 14162.96
376.39999 5988.27 14169.15
381 5987.98 14169.15
385.42999 5985.2202 14165.2
394.78 5987.1899 14167.48
354.70999 5991.6299 14155.04
358.73001 5991.3901 14155.04
363.82999 5989.98 14163.76
368.97 5998.6001 14158.35
373.41 5995.75 14156.08
386.17001 5996.6499 14161.98
391.45999 5998.2002 14164.54
395.53 5998.52 14165.92
465.06 6000.6401 14197.79
346.63 6001.4102 14141.1
364.23999 5996.6499 14149.31
378 6004.3901 14150.66
382.17999 6006.52 14156.27
392.13 6008.3599 14160.22
396.66 6006.8501 14157.37
400.14999 6007.2402 14158.84
409.42999 6007.5498 14166.7
427.38 6007.6699 14166.12
458.32999 6010.96 14188.64
382.70999 6014.8701 14147.71
400.82999 6017.3999 14154.5
428.14001 6018.4102 14163.17
432.78 6018.4302 14169.65
441.20999 6014.6899 14166.09
444.72 6015.02 14167.47
449.29001 6014.0898 14166.09
454.38 6012.3398 14166.67
458.51001 6013.3901 14166.09
462.01001 6013.6201 14169.14
470.82999 6015.2002 14178.17
415.72 6023.1802 14151.62
433.29999 6025.6201 14158.32
437.95999 6025.8198 14161.46
441.87 6023.6299 14158.9
459.42001 6025.3101 14165.89
462.84 6024.46 14164.51
471.44 6022.98 14168.22
475.85001 6019.9502 14167.62
481.20999 6028.9199 14167
484.76999 6029.7598 14171.52
420.89999 6030.9902 14148.13
424.56 6033.3599 14148.65
429.45999 6036.9199 14150.25
434.57001 6035.1401 14152.59
438.48001 6032.9502 14150.03
442.70001 6035 14157.4
446.67001 6033.48 14154.55
450.85001 6034.98 14158.78
456.04001 6034.4302 14162.11
460.29999 6036.77 14162.72
464.29001 6035.7798 14163.01
468.19 6033.5 14162.11
472.23001 6033.1299 14163.87
477.42999 6032.54 14167.21
482.12 6040.25 14165.4
485.63 6040.5098 14168.54
489.79001 6034.2798 14166.05
494.47 6034.5601 14165.77
498.92001 6032.02 14170.07
421.48999 6039.4199 14137.89
439.70999 6041.8799 14142.92
443.22 6042.1401 14145.96
447.32999 6042.4302 14147.34
451.87 6040.8999 14144.58
456.67999 6042.8101 14153.62
461.47 6044.48 14152.75
465.03 6045.3198 14157.18
468.89001 6042.4702 14155
473.75 6045 14163.66
478.47 6045.6699 14169.85
482.82999 6049.2202 14158.28
486.35001 6049.4399 14161.33
490.76001 6046.23 14165.92
504.5 6043.0601 14166.8
508.13 6044.5698 14171.03
517.76001 6041.1602 14168.76
523.15997 6049.6401 14163.31
531.32001 6049.3901 14168.12
535.73999 6046.4102 14165.85
559.12 6052.7998 14183.76
452.82001 6053.5298 14144.16
462.14999 6053.4199 14145.54
469.73001 6053.29 14150.35
474.26001 6051.5801 14150.93
478.94 6051.6602 14155.74
484.07999 6057.5098 14149.69
487.64999 6058.3599 14154.21
491.57999 6056.3799 14161.56
496.76999 6055.4199 14158.42
501.29001 6053.54 14162.43
505.29999 6052.6201 14161.06
509.09 6055.9902 14167.75
514.16998 6060.6299 14158.94
518.69 6051.9902 14164.1
524.29999 6062.7798 14165.92
532.27002 6060.1201 14165.13
536.73999 6057.77 14164.33
541.35999 6057.0601 14171.1
555.27002 6061.8398 14170.15
488.17999 6064.8799 14141.38
492.54999 6061.0898 14144.6
497.5 6064.3799 14151.29
501.92999 6061.29 14152.46
506.20001 6063.3501 14158.06
509.75 6063.73 14157.77
519.60999 6062.7202 14161.11
525.02002 6071.1099 14157.32
529.37 6073.8398 14162.63
533.10999 6069.6802 14159.37
537.64001 6067.9102 14159.96
556.35999 6073.7998 14169.99
493.32001 6070.5898 14138.75
502.72 6070.8398 14146.7
506.54001 6067.46 14139.63
520.38 6071.6802 14153.98
525.59003 6077.7402 14142.91
529.98999 6080.98 14151.26
533.89001 6078.5898 14152.14
538.59998 6078.73 14155.28
543.17999 6077.3501 14162.34
547.83002 6076.8398 14164.01
551.60999 6073.1699 14163.8
557.17999 6082.7202 14162.76
562.29999 6080.8799 14163.34
575.10999 6079.5498 14166.78
507.54001 6079.4902 14137.8
520.92999 6078.1899 14141.14
531.08002 6086.8398 14137.05
544.51001 6085.7002 14152.06
549.27002 6086.3398 14158.24
552.53003 6083.3101 14159.42
558.04999 6092.2598 14156.98
563.02002 6088.6099 14153.35
567.96997 6091.1802 14160.33
571.92999 6089.5298 14159.24
549.91998 6093.52 14145.11
573.41998 6099.0298 14153.46
576.73999 6096.79 14150.91
581.78003 6100.0698 14157.68
578.66998 6117.1299 14140.42
0 0 0 1 0 0 0 1 0 0 0 1 0 0 0 0 0 180 1 0 0
