ply
format ascii 1.0
comment PCL generated
element vertex 173
property float x
property float y
property float z
element camera 1
property float view_px
property float view_py
property float view_pz
property float x_axisx
property float x_axisy
property float x_axisz
property float y_axisx
property float y_axisy
property float y_axisz
property float z_axisx
property float z_axisy
property float z_axisz
property float focal
property float scalex
property float scaley
property float centerx
property float centery
property int viewportx
property int viewporty
property float k1
property float k2
end_header
504.63 5434.4502 14197.26
508.10999 5432.3301 14194.63
512.48999 5434.2598 14198.66
502.23001 5448.3398 14200.17
506.25 5446.21 14197.63
495.01999 5461.8398 14196.84
499.60999 5459.9702 14199.12
503.07001 5457.4399 14193.43
506.78 5452 14182.31
518.20001 5444.5698 14169.96
522.25 5442.7998 14162.35
526.15997 5445.1699 14169.43
529.46002 5441.1699 14166.02
533.14001 5435.7402 14163.04
545.83002 5436.23 14157.44
548.91998 5435.5298 14162.52
495.85001 5470.9302 14190.1
499.88 5462.98 14176.61
503.92001 5460.98 14172.42
507.57001 5460.5 14174.08
510.60999 5459.0898 14171.19
515.21997 5457.5698 14168.39
519.16998 5454.71 14166.02
523.38 5454.5898 14162.7
534.82001 5447.4702 14163.4
480.87 5486.9702 14205.66
484.64001 5481.6899 14201.02
488.64001 5479.02 14197.09
492.06 5475.8301 14199.81
496.62 5479.4502 14181.85
504.81 5470.5498 14166.98
508.62 5471.73 14172.93
512.14001 5469.7598 14168.73
516.34003 5469.4702 14166.98
520.45001 5468.1602 14170.66
524.34998 5464.7202 14158.76
528.70001 5465.9702 14163.05
531.65997 5463.7402 14162.08
539.19 5454.23 14155.7
474.63 5500.6401 14198.97
477.60999 5498.3301 14199.76
481.66 5496.0601 14198.9
486.20001 5493.3799 14184.97
489.73001 5485.2798 14183.16
492.53 5481.0298 14182.99
497.23999 5486.3198 14169.41
501.54999 5481.21 14161.36
505.84 5481.8101 14165.91
509.57001 5482.0098 14167.31
517.20001 5478.5298 14160.23
521.09998 5474.98 14158.13
526.15997 5478.0801 14163.29
532.33002 5470.5898 14149.65
471.95001 5512.79 14199.28
475.31 5508.6001 14189.31
478.88 5506.79 14191.5
482.85001 5503.54 14186.09
486.38 5495.3701 14176.04
491.01999 5499.7402 14174.19
493.34 5490.1201 14176.23
498.64001 5495.8301 14163.95
502.73001 5494.1001 14164.48
507 5494.29 14165.97
510.98999 5491.5601 14161.95
514.14001 5491.1299 14163.61
518.40997 5491.4102 14163.35
522.85999 5487.9399 14159.59
526.56 5482.1499 14143.67
530.22998 5481.7998 14143.67
533.46997 5482.3799 14149.98
464 5525.9399 14200.98
467.78 5513.8301 14199.02
472.72 5521.8398 14192.41
475.85001 5514.8901 14175.37
479.38 5512.54 14176.16
483.35001 5509.2798 14170.75
487.42999 5507.1802 14176.36
491.44 5504.4702 14172.34
494.64001 5498.6899 14166.31
499.82001 5508.8599 14165.4
504.23999 5504.77 14162
508.41 5503.7998 14160.51
512.09003 5503.3599 14162.27
515.19 5502.3901 14162.53
518.90002 5496.5898 14146.62
523.31 5492.5801 14141.46
527.81 5495.1899 14145.22
531.28003 5492.5898 14139.45
538.87 5488.6602 14147.34
464.67001 5533.8999 14191.31
468.64001 5524 14195.03
473.01999 5525.3599 14171.38
480.17999 5521.7002 14167.63
484.29001 5519.9702 14168.16
488.14001 5515.2598 14165.03
492.35999 5514.75 14166.7
495.70999 5510.5 14166.62
500.79001 5519.5801 14162.91
505.32001 5516.54 14162.22
509.54999 5516.1499 14162.22
512.83002 5511.29 14152.61
515.84003 5509.3198 14148.33
524.53003 5505.4502 14144.57
528.83002 5505.8599 14142.64
449.89001 5542.6699 14196.53
454 5540.6099 14202.14
461.14001 5542.79 14191.17
465.82001 5541.25 14180.24
469.07999 5529.2002 14178.29
473.94 5536.0601 14168.79
476.79001 5525.7202 14171.12
481.16 5532.9702 14166.53
485.23001 5530.7002 14165.66
489.23001 5527.6201 14166.73
493.31 5525.4399 14164.11
496.62 5520.6401 14162.64
501.41 5526.3799 14150.35
505.89001 5522.8301 14148.36
510.01999 5521.3101 14145.47
513.46002 5518.0698 14140.06
461.79999 5544.3198 14179.17
466.5 5549.2798 14168.8
469.95001 5539.4502 14172.54
475.29001 5545.6201 14163.39
479.26999 5548.2002 14168.8
482.13 5544.21 14165.32
486.60001 5540.2202 14160.18
490.70999 5538.2598 14164.13
494.95001 5537.75 14165.79
497.53 5530.79 14158.65
451.85001 5560.1899 14181.44
456.10001 5559.6602 14174.96
459.39001 5554.0698 14175.43
462.73999 5555.5698 14177.96
467.39999 5560.02 14166.28
471.39001 5550.1401 14170.02
476.35999 5558.1201 14163.4
480.19 5558.9302 14166.28
483.79001 5557.1201 14168.48
487.64999 5552.1602 14158.79
491.56 5547.8599 14158.73
495.56 5544.5801 14153.33
507.91 5544.8501 14142.89
447.91 5571.29 14178.82
452.81 5572.04 14181.71
456.45001 5563.9502 14169.93
460.10001 5562.6699 14165.48
463.63 5566.2798 14175.34
472.64999 5565.02 14164.15
484.42999 5564.4502 14157.31
488.64001 5563.3999 14157.57
453.35999 5578.8398 14169.12
461.26001 5576.7002 14171.32
464.23999 5573.6499 14164.25
468.94 5578.3501 14167.2
450.04001 5591.0298 14169.37
462.06 5586.3101 14165.9
465.19 5585.0298 14161.35
474.01999 5581.1299 14159.37
446.97 5606.6899 14166.51
455.60001 5599.7798 14160.79
459.17999 5597.3101 14163.26
462.89999 5596.4502 14161.87
474.92999 5591.8301 14156.74
451.81 5613.0298 14165.56
456.57001 5611.6201 14161.02
464.17999 5605.4502 14155.04
467.32001 5604.1699 14150.49
446.98001 5640.96 14159.46
450.07999 5638.9102 14156.95
453.94 5632.8198 14154.3
435.04001 5648.3799 14161.83
442.91 5644.6001 14159.86
0 0 0 1 0 0 0 1 0 0 0 1 0 0 0 0 0 173 1 0 0
