ply
format ascii 1.0
comment PCL generated
element vertex 58
property float x
property float y
property float z
element camera 1
property float view_px
property float view_py
property float view_pz
property float x_axisx
property float x_axisy
property float x_axisz
property float y_axisx
property float y_axisy
property float y_axisz
property float z_axisx
property float z_axisy
property float z_axisz
property float focal
property float scalex
property float scaley
property float centerx
property float centery
property int viewportx
property int viewporty
property float k1
property float k2
end_header
-72.019997 6751.77 14119.79
-77.349998 6765.2002 14118.43
-71.370003 6751.3799 14092.93
-86.550003 6774.5698 14113.89
-82.599998 6770.6201 14109.04
-77.330002 6763.4502 14088.77
-86.610001 6778.73 14096.58
-82.599998 6770.1699 14080.41
-91.400002 6796.71 14113.31
-86.599998 6778.27 14069.72
-96.650002 6799.5098 14091.61
-91.360001 6793.6001 14080.95
-102.07 6812.8901 14091.88
-115.61 6840.8301 14113.81
-106.76 6820.3101 14079.81
-102.1 6815.04 14070.51
-121.71 6852.2598 14104.87
-115.57 6839.02 14082.56
-127.26 6867.6201 14112.59
-121.75 6854.4102 14081.81
-136.10001 6881.6299 14112.47
-127.22 6865.7598 14083.02
-140.91 6891.02 14106.17
-135.47 6883.1001 14089.72
-146.45 6903.0601 14110.47
-141.00999 6895.7998 14090.25
-152.67999 6915.0898 14106.18
-146.42999 6901.7598 14082.15
-156.84 6923.1201 14100.52
-151.97 6913.1401 14074.84
-161.74001 6933.7998 14093.44
-156.22 6925.2002 14079.12
-172.89 6954.4902 14112.1
-167.35001 6945.8501 14096.02
-161.91 6941.23 14082.98
-173.00999 6959.23 14096.16
-167.41 6948.5601 14074.28
-182.95 6981.9502 14108.56
-178.7 6972.5898 14091.15
-182.88 6979.21 14077.56
-178.83 6977.98 14074.87
-188.39999 6985.1802 14084.79
-199.98 7015.3501 14110.52
-194.92 7002.5801 14091.36
-205.67999 7026.0298 14108.58
-199.89999 7012.5601 14077.83
-210.28999 7044.9102 14117.88
-205.53999 7021.1699 14073.46
-215.89999 7051.48 14107.69
-210.00999 7035.2402 14073.19
-221.5 7057.3301 14096.07
-215.89999 7051.3701 14082.14
-221.61 7060.6401 14077.41
-232.56 7084.8301 14106.04
-228.06 7071.9399 14083.49
-232.63 7086.7402 14084.6
-244.32001 7110.2202 14106.73
-250.22 7122.8701 14103.6
0 0 0 1 0 0 0 1 0 0 0 1 0 0 0 0 0 58 1 0 0
