ply
format ascii 1.0
comment PCL generated
element vertex 58
property float x
property float y
property float z
element camera 1
property float view_px
property float view_py
property float view_pz
property float x_axisx
property float x_axisy
property float x_axisz
property float y_axisx
property float y_axisy
property float y_axisz
property float z_axisx
property float z_axisy
property float z_axisz
property float focal
property float scalex
property float scaley
property float centerx
property float centery
property int viewportx
property int viewporty
property float k1
property float k2
end_header
856.70001 5973.4502 13820.47
860.53003 5971.6201 13819.39
855.28003 5988.04 13824.18
864.64001 5996.0601 13821.87
867.82001 5985.6299 13822.8
844.27002 6005.52 13822.29
848.59998 6002.96 13821.5
852.52002 6001.5898 13826.88
860.78998 5997.8799 13822.96
869.77002 5999.1201 13826.88
820.90002 6019.2402 13826.14
845.82001 6016.6001 13820.77
850.41998 6015.8301 13824.1
854.75 6013.2002 13826.72
866.5 6008.98 13822.8
871.02002 6007.7402 13819.67
822.15997 6028.4502 13820.31
825.71997 6028.6099 13821.77
829.98999 6025.4399 13819.51
835.67999 6032.48 13822.76
840.58002 6033.8101 13821.89
847.54999 6028.8701 13821.98
852.07001 6027.5098 13823.93
856.06 6022.3999 13820.89
863.96002 6019.9902 13819.8
867.65002 6016.98 13814.22
877.32001 6018.6699 13821.18
824.01001 6042.0298 13822.68
827.57001 6042.1499 13824.05
832.65997 6044.7998 13822.59
836.58002 6038.98 13823.26
842.46002 6047.3301 13825.92
849.27002 6041.1499 13823.18
853.89001 6040.3799 13826.51
858.64001 6040.5601 13821.22
811.41998 6053.7202 13819.95
825.69 6054.3198 13823.88
828.75 6050.7598 13816.83
833.46002 6050.6099 13823.28
838.28003 6051.2598 13824.46
855.85999 6050.1401 13822.12
809.41998 6069.7202 13823
813.97998 6068.3799 13826.71
818.54999 6067.1699 13823.59
823.54999 6069.04 13827.5
830.94 6066.75 13826.42
834.97998 6061.6899 13821.72
803.22998 6085.6699 13826.42
807.56 6082.4902 13825.92
815.21997 6077.6299 13820.94
820.46002 6081.3198 13828.96
794.01001 6092.29 13822.39
804.60999 6096.1299 13823.37
808.87 6092.3398 13821.51
788.09003 6110.8599 13822.85
806.23999 6108.4502 13824.51
818.52002 6102.2402 13823.25
812.14001 6116.96 13823.8
0 0 0 1 0 0 0 1 0 0 0 1 0 0 0 0 0 58 1 0 0
