ply
format ascii 1.0
comment PCL generated
element vertex 88
property float x
property float y
property float z
element camera 1
property float view_px
property float view_py
property float view_pz
property float x_axisx
property float x_axisy
property float x_axisz
property float y_axisx
property float y_axisy
property float y_axisz
property float z_axisx
property float z_axisy
property float z_axisz
property float focal
property float scalex
property float scaley
property float centerx
property float centery
property int viewportx
property int viewporty
property float k1
property float k2
end_header
-3009.4199 10829.02 14098.24
-3001.1201 10831.32 14098.24
-2972.49 10849.22 14115.87
-2963.0801 10851.61 14110.12
-2955.51 10852.54 14112.92
-2949.8401 10860.46 14117.86
-2944.54 10869.78 14127.4
-2934.22 10864.69 14117.86
-3009.5801 10829.58 14078.2
-2995.47 10843.25 14094.1
-2986.1399 10841.88 14089.34
-2981.26 10848.56 14093.04
-2972.9099 10850.76 14097.07
-2963.75 10854.05 14092.5
-2956.6899 10856.86 14097.7
-2950 10861.04 14097.8
-2942.47 10862.12 14096.63
-2935.6201 10869.85 14103.74
-2927.1899 10871.77 14106.06
-2921.1899 10878.56 14113.71
-2913.6599 10875.5 14111.74
-2898.74 10882.35 14119.38
-2890.3201 10888.53 14114.42
-2851.6899 10903.08 14126.67
-2814.8899 10924.79 14128.92
-2993.25 10839.27 14066.42
-2969.78 10843.35 14066.32
-2962.9099 10850.99 14067.77
-2957.3501 10859.29 14080.08
-2950.9099 10864.38 14081.34
-2941.3101 10857.84 14068.94
-2935.28 10868.62 14081.34
-2926.8501 10870.52 14083.67
-2919.8701 10873.64 14086.55
-2913.3301 10874.26 14089.34
-2907.5601 10886.13 14099.05
-2898.5801 10885.99 14102.92
-2889.74 10886.34 14100.5
-2884.22 10895.04 14110.65
-2877.1299 10893.61 14095.54
-2870.1699 10905.32 14107.49
-2860.72 10903.44 14114.71
-2854.5 10913.81 14119.73
-2845.72 10910.16 14112.54
-2838.23 10911.41 14113.08
-2831.6001 10920.3 14113.43
-2822.6599 10924.62 14115.85
-2814.02 10921.43 14102.38
-2808.3601 10929.79 14110.73
-2801.5701 10933.79 14114.87
-2792.53 10937.77 14115.5
-2920.6899 10876.71 14068.39
-2914.48 10878.55 14074.14
-2907.71 10886.68 14079
-2899.8899 10890.88 14087.09
-2890.1399 10887.86 14081.7
-2883.3899 10891.91 14076.11
-2875.6599 10888.02 14078.65
-2870.3201 10905.89 14097.16
-2860.26 10905.89 14085.64
-2852.96 10907.91 14091.32
-2846.6001 10913.51 14096.08
-2838.8 10913.6 14093.74
-2831.3601 10919.37 14102.54
-2822.8899 10925.5 14107.31
-2814.6499 10923.86 14084.74
-2800.77 10930.66 14090.04
-2792.9199 10939.3 14096.68
-2784.5 10941.31 14100.64
-2905.8899 10879.84 14049.43
-2883.0601 10890.65 14063.45
-2878 10896.9 14069.38
-2870.24 10905.6 14076.02
-2860.1699 10905.54 14074.14
-2846.03 10911.33 14072.51
-2839.4299 10916.02 14076.1
-2831.27 10919.02 14081.32
-2822.72 10924.84 14084.29
-2814.8 10924.45 14064.77
-2809.1499 10932.88 14092.55
-2800.9199 10931.28 14070.06
-2791.6499 10934.33 14069.53
-2785.1101 10943.73 14083
-2846.1799 10911.92 14052.55
-2821.6799 10920.83 14058.39
-2783.6101 10937.83 14054.68
-2776.8301 10946.31 14066.99
-2771.01 10949.79 14069.41
0 0 0 1 0 0 0 1 0 0 0 1 0 0 0 0 0 88 1 0 0
