ply
format ascii 1.0
comment PCL generated
element vertex 1084
property float x
property float y
property float z
element camera 1
property float view_px
property float view_py
property float view_pz
property float x_axisx
property float x_axisy
property float x_axisz
property float y_axisx
property float y_axisy
property float y_axisz
property float z_axisx
property float z_axisy
property float z_axisz
property float focal
property float scalex
property float scaley
property float centerx
property float centery
property int viewportx
property int viewporty
property float k1
property float k2
end_header
-2374 9422.75 14027.22
-2359.6399 9422.9502 14023.91
-2354.21 9428.0801 14030.62
-2320.3401 9438.6104 14023.58
-2314.1899 9444.8398 14031.6
-2382.6101 9422.5996 14012.84
-2375.3899 9428.2695 14013.91
-2371.01 9441.4404 14033.65
-2363.29 9441.3701 14029.41
-2358.1299 9443.7803 14032.42
-2350.25 9443.0498 14028.64
-2342.2 9445.4805 14032.12
-2335.4099 9449.1104 14036.29
-2326.02 9461.7402 14034.94
-2318.04 9460.5596 14033.4
-2308.52 9456.9902 14028.01
-2295.4199 9458.4102 14025.54
-2288.6799 9462.3096 14025.84
-2281.9199 9466.1396 14031.79
-2195.8701 9487.6699 14029.15
-2152.8999 9496.6299 14027.92
-2394.3101 9438.4102 14013.24
-2389.55 9450.0596 14032.13
-2382.3201 9455.7998 14033.27
-2375.3201 9458.6299 14036.2
-2366.97 9456.0596 14028.26
-2362.26 9460.3203 14035.44
-2354.1101 9458.5801 14028.73
-2344.8301 9456.0996 14026.35
-2337.21 9456.4102 14025.59
-2328.8601 9473.2695 14030.46
-2320.3601 9473.96 14031.4
-2311.95 9471.0498 14027.33
-2299.6399 9475.8096 14029.79
-2293.9199 9483.9805 14036.41
-2283.8899 9474.2803 14022.32
-2277.75 9480.7197 14026.39
-2271.8701 9484.3301 14032.33
-2265.96 9483.7305 14028.09
-2258.5801 9484.9902 14030.26
-2250.75 9484.4004 14028.26
-2242.95 9483.9199 14027.88
-2236.6499 9485.6602 14029.67
-2230.3201 9483.2598 14028.52
-2224.5701 9491.4502 14029.49
-2215.27 9484.5195 14028.23
-2207.8401 9485.5596 14028.69
-2201.8701 9488.71 14031.16
-2198.3301 9498.3203 14023.38
-2180.1599 9490.1504 14026.15
-2173 9496.5498 14028.52
-2154.99 9510.0703 14025.92
-2147.6899 9511.7197 14025.92
-2140.6699 9510.29 14026.01
-2133.9099 9510.0596 14023.55
-2400.5901 9463.1602 14027.02
-2392.8799 9463.2197 14030.13
-2385.6399 9468.96 14031.26
-2378.4199 9470.96 14032.96
-2370.6799 9470.8896 14028.72
-2364.45 9469.0996 14025.49
-2357.3899 9471.7402 14026.72
-2349.3601 9474.3701 14031.91
-2341.1001 9472.1299 14027.37
-2334.6201 9473.2197 14029.54
-2323.1699 9485.4297 14026.84
-2315.99 9487.6201 14030.33
-2303.46 9491.5498 14031.56
-2296.9099 9496.3398 14033.16
-2288.04 9491.5098 14024.85
-2281.9299 9498.1299 14030.62
-2274.6201 9495.7998 14027.78
-2269.9299 9500.3203 14031.09
-2261.72 9498.1904 14028.25
-2254.28 9499.2695 14028.72
-2246.8899 9500.5703 14030.97
-2240.3601 9501.4199 14031.44
-2234.03 9499.0195 14030.3
-2226.05 9497.75 14028.77
-2219.5 9502.6104 14032
-2213.3301 9509.1396 14030.5
-2206.95 9510.6201 14030.5
-2200.8899 9513.4697 14023.91
-2191.3799 9505.5596 14026.99
-2184.6699 9513.9502 14027.96
-2176.4199 9511.5 14029.07
-2171.51 9515.2002 14025.49
-2151.6399 9529.1904 14030.15
-2143.3101 9526.2998 14027.78
-2137.8301 9527.5303 14027.78
-2129.96 9526.6602 14024.09
-2114.8201 9527.5303 14022.01
-2094.1799 9533.9004 14024.56
-2410.23 9478.3096 14030
-2403.23 9477.3799 14026.23
-2397.0601 9479.7598 14033.11
-2388.9099 9481.9404 14027.54
-2381.0901 9481.5801 14027.17
-2374.6201 9486.6104 14030.47
-2369 9487.3203 14030.94
-2361.9299 9489.96 14032.17
-2351.79 9484.1504 14024.89
-2345.1899 9488.6904 14030.36
-2333.77 9497.1699 14033.96
-2326.78 9500.1504 14025.67
-2320.24 9505.0303 14034.54
-2306.04 9502.1904 14025.76
-2299.8899 9508.6504 14029.83
-2291.02 9503.8701 14021.6
-2286.3301 9516.4502 14036.14
-2278.5901 9512.3896 14030.77
-2272.3701 9514.5801 14030.3
-2264.6599 9510.5596 14025
-2258.6299 9517.5898 14034.25
-2249.4099 9511.2197 14025.18
-2243.27 9513.7402 14028.11
-2237.1399 9512.2305 14028.29
-2229.5 9512.4697 14027.51
-2222.8 9516.7305 14031.29
-2215.73 9519.4502 14034.22
-2208.6001 9517.7197 14030.91
-2204.54 9529.2598 14025.67
-2195.8 9524.7598 14033.75
-2186.3101 9521.0996 14028.45
-2180.04 9527.2998 14030.83
-2173.48 9523.8496 14026.75
-2167.76 9528.2803 14028.29
-2160.3201 9533.6104 14027.64
-2154.4399 9541.5898 14026.9
-2147.2 9543.5996 14030.3
-2140.24 9538.2598 14022.07
-2134.6299 9547.5498 14033.31
-2125.6899 9541.8896 14025.47
-2119.27 9547.5801 14030
-2111.28 9546.2197 14028.48
-2106.23 9549.4004 14027.08
-2414.4399 9494.8496 14032.97
-2407.8601 9495.6396 14031.74
-2400.3899 9492.9199 14031.08
-2391.79 9493.3799 14022.97
-2385.8799 9500.6797 14033.91
-2378.55 9502.3301 14032.21
-2371.8701 9498.8203 14026.45
-2365.4299 9504.0303 14031.45
-2357.95 9508.9805 14038.63
-2348.6101 9502.5195 14027.86
-2339.1299 9518.9805 14033.16
-2330.8401 9516.7305 14028.63
-2323 9516.3203 14028.26
-2308.75 9517.3203 14026.27
-2303.8601 9525.0596 14031.09
-2295.4199 9522.1201 14027.03
-2288.8899 9527.0996 14030.33
-2282.1699 9527.3203 14031.27
-2276.3301 9531.1797 14033.26
-2268.8201 9528 14029.2
-2261.3501 9529.0801 14029.67
-2253.6899 9529.3203 14028.91
-2246.3799 9526.96 14026.08
-2241.24 9529.6797 14032.49
-2233.5901 9529.9199 14031.72
-2226.0801 9530.79 14030.49
-2218.6201 9531.8398 14030.96
-2212.22 9533.3301 14030.96
-2208.97 9548.4004 14032.32
-2199.05 9538.8301 14032.95
-2189.6899 9535.8301 14027.19
-2183.01 9540.29 14027.02
-2177.47 9541.3203 14030.96
-2169.8601 9541.7197 14026.26
-2164.9099 9553.8301 14024.39
-2157.8101 9556.5098 14027.32
-2150.76 9559.4199 14032.03
-2143.77 9554.0195 14023.73
-2136.8301 9557.3896 14026.27
-2128.4399 9558.5703 14026.74
-2121.27 9556.5898 14021.74
-2114.02 9558.5801 14025.14
-2110.0901 9566.9102 14031.27
-2427.1001 9514.0596 14038.28
-2418 9508.8496 14032.15
-2410.3401 9505.4199 14024.69
-2403.8799 9506.7402 14028.57
-2396.8201 9513.3301 14030.92
-2389.1899 9513.8604 14031.86
-2382.27 9517.1699 14032.62
-2375.78 9514.5 14028.09
-2368.28 9515.4805 14026.87
-2359.95 9517.0498 14029.04
-2352.28 9517.3701 14028.28
-2342.3701 9532.1797 14031.11
-2334.6799 9532.4297 14030.27
-2326.22 9529.5098 14026.21
-2312.51 9532.8398 14026.21
-2307.6699 9540.8301 14032.81
-2298.6001 9535.3203 14024.98
-2292.8301 9543.5195 14031.58
-2285.29 9540.3496 14027.52
-2279.29 9543.5498 14029.98
-2273.75 9548.7197 14036.76
-2265.1001 9544.8496 14031.39
-2257.22 9544.2598 14029.41
-2250.26 9543.3896 14027.34
-2244.9099 9545.2803 14032.52
-2236.8799 9543.9697 14030.91
-2229.1699 9544.0098 14028.45
-2221.8899 9545.9004 14030.15
-2215.8799 9549.1201 14032.69
-2212.03 9561.6299 14030.27
-2201.3101 9548.6504 14025.91
-2192.3401 9547.3799 14022.69
-2186.4399 9555.2598 14027.52
-2180.49 9554.5596 14028.92
-2172.29 9552.4102 14020.44
-2168.6799 9570.4805 14027.34
-2161.1899 9571.4902 14027.81
-2153.3601 9570.9902 14027.52
-2147.28 9569.6504 14023.75
-2140.52 9573.8701 14027.52
-2124.97 9573.2598 14024.69
-2117.52 9574.4102 14026.87
-2430.03 9525.5596 14033.75
-2421.3601 9522.0703 14030.17
-2414.54 9521.9697 14027.64
-2408.0901 9523.3604 14031.59
-2399.6599 9528.46 14031.4
-2392.8899 9528.5801 14030.65
-2385.1001 9528.5 14026.41
-2379.23 9532.1904 14032.35
-2372.5 9536.3301 14034.33
-2364.28 9534.5195 14033.29
-2356.3799 9533.9502 14031.22
-2346.8101 9550.2598 14034.8
-2338.3401 9547.3496 14030.74
-2316.76 9550.3398 14030.46
-2310.6699 9553.2002 14029.52
-2302.6101 9551.9297 14027.92
-2296.01 9556.7305 14029.52
-2281.99 9554.8496 14023.68
-2275.6799 9556.7998 14027.16
-2268.1899 9557.8896 14027.64
-2260.96 9560.0498 14031.12
-2253.5701 9557.4502 14026.51
-2247.6201 9556.79 14027.91
-2239.5901 9555.5195 14026.4
-2232.6499 9558.9102 14028.85
-2227.0601 9568.1104 14019.81
-2221.8301 9574.75 14027.34
-2215.25 9575.5801 14027.82
-2205.1101 9565.1104 14027.16
-2199.3999 9578.0996 14024.81
-2189.8501 9570.1904 14027.91
-2186.53 9581.04 14024.81
-2176.0701 9569.0498 14023.39
-2172.02 9585.2305 14026.03
-2163.9399 9583.6602 14022.74
-2156.3501 9584.2402 14025.46
-2150.8301 9585.4805 14025.46
-2143.28 9586.2305 14024.15
-2134.9099 9587.6602 14026.41
-2128.3201 9592.71 14031.4
-2120.27 9586.8301 14023.58
-2433.3501 9542.3604 14036.67
-2424.48 9534.3496 14026.79
-2418.6899 9538.3604 14028.86
-2412.49 9540.7598 14035.74
-2402.76 9540.7998 14028.1
-2395.97 9540.8604 14027.26
-2389.25 9545.0801 14029.33
-2383.3201 9548.5898 14033.57
-2374.9299 9546.1201 14027.26
-2366.5 9543.4697 14024.99
-2359.8601 9548.0498 14030.45
-2349.22 9560.0596 14027.72
-2341.99 9562.2803 14031.2
-2334.1201 9561.8701 14030.84
-2319.96 9563.54 14028.38
-2314.26 9568.0801 14029.89
-2286.3701 9573.21 14029.14
-2279.6399 9573.4297 14030.08
-2272.1399 9574.5195 14030.56
-2264.0901 9573.2695 14029.04
-2257.51 9574.1299 14029.52
-2250.9399 9570.9102 14027.16
-2244.0901 9574.7305 14033.1
-2235.8999 9572.8496 14026.4
-2225.29 9589.6602 14027.72
-2218.51 9589.6602 14026.97
-2209.1499 9582.6602 14031.39
-2203.03 9593.9199 14026.49
-2193.6799 9586.9004 14030.92
-2179.6699 9584.8701 14025.09
-2175.23 9599.3701 14025.27
-2167.1299 9597.8096 14021.97
-2159.52 9598.3301 14024.62
-2153.6201 9597.8896 14022.16
-2146.45 9600.3799 14023.39
-2138.05 9601.7598 14025.56
-2130.6899 9603.4004 14025.56
-2124.29 9605.0098 14027.26
-2436.4299 9554.46 14031.57
-2429.52 9554.1396 14032.99
-2422.6799 9554.0898 14030.53
-2415.8201 9553.9404 14033.65
-2406.8799 9557.1396 14029.22
-2393.3999 9561.6602 14032.23
-2385.97 9559.21 14027.71
-2378.8501 9561.8799 14028.94
-2370.8301 9560.9102 14029.12
-2364.3799 9566.3096 14035.82
-2353.9299 9579.2305 14034.39
-2345.01 9574.5898 14027.8
-2336.6399 9576.1904 14030.06
-2323.3701 9577.5898 14027.52
-2318.5 9585.5898 14034.1
-2309.75 9581.5703 14027.05
-2303.5801 9588.2402 14032.79
-2291.1599 9593.25 14037.03
-2283.3999 9589.2197 14031.76
-2275.6899 9589.4805 14031.01
-2266.8899 9589.2305 14030.64
-2260.22 9585.6299 14024.9
-2253.3201 9585.1904 14026.3
-2247.1899 9587.96 14031.01
-2231.6799 9587.9805 14026.02
-2222.1699 9605.4697 14028.64
-2209.8999 9590.1201 14020.56
-2196.46 9599.0703 14025.83
-2190.29 9597.5195 14026.02
-2183.6101 9602.1904 14027.53
-2180.1599 9621.1504 14035.61
-2171.28 9616.1602 14027.33
-2163.6101 9616.5098 14028.28
-2157.55 9615.4102 14026.29
-2150.75 9619.6504 14030.06
-2140.8201 9614.1797 14022.25
-2133.78 9617.3203 14023
-2440.45 9570.2002 14033.23
-2426.6599 9569.7803 14032.11
-2417.8 9565.6396 14029.01
-2411.0601 9573.7197 14032.11
-2402.76 9571.75 14029.38
-2389.27 9572.4004 14025.61
-2383.1899 9579.3096 14033.06
-2374.9399 9577.5098 14032.02
-2367.5901 9579.3301 14032.02
-2356.75 9590.7002 14029.74
-2348.8201 9590.1797 14027.76
-2340.23 9590.8896 14028.71
-2328.23 9597.6201 14035.4
-2321.0801 9596.2402 14028.24
-2313.3501 9596.5195 14027.48
-2306.55 9600.6299 14029.46
-2293.5 9603.0596 14029.94
-2286.55 9602.4502 14029.66
-2278.6101 9601.8096 14027.59
-2270.1699 9603.1201 14028.07
-2264.1399 9602.2803 14027.78
-2255.4299 9594.1602 14017.99
-2250.25 9601.0098 14027.22
-2243.0801 9603.5703 14028.45
-2235.4299 9608.2695 14033.91
-2229.3101 9606.9697 14030.15
-2225.8201 9621.2402 14030.22
-2214.3301 9609.3604 14027.22
-2206.8101 9610.4004 14027.69
-2200.0801 9614.9004 14027.5
-2193.51 9611.6104 14025.16
-2186.24 9613.7598 14022.98
-2182.3899 9630.9902 14028.51
-2174.47 9630.3203 14026.54
-2166.21 9628.0898 14023.72
-2160.53 9628.6797 14024.19
-2152.4099 9631.3799 14025.42
-2435.5701 9577.9297 14025.01
-2429.5801 9581.29 14027.54
-2421.5701 9580.5498 14029.43
-2414.8101 9588.6396 14032.53
-2406.49 9586.6299 14029.71
-2393.4099 9589.0098 14028.48
-2386.0601 9590.8496 14028.48
-2378.79 9593.04 14031.88
-2371.7 9595.9404 14034.89
-2361.0601 9608.2197 14033.92
-2352.8999 9606.7998 14030.63
-2344.0801 9606.6797 14030.35
-2330.77 9608.0801 14027.82
-2325.46 9614.3701 14031.86
-2317.1499 9612.2598 14029.05
-2310.55 9617.2695 14032.33
-2296.8601 9617.1299 14029.05
-2290.25 9618.0098 14029.52
-2281.6399 9618.6699 14030.47
-2273.3 9616.3604 14025.95
-2267.46 9616.3604 14026.9
-2260.76 9616.8096 14029.63
-2252.6201 9615.2998 14026.34
-2245.77 9615.0703 14023.81
-2237.72 9618.0898 14026.81
-2231.6499 9621.2695 14029.27
-2228.6899 9633.6504 14026.87
-2217.77 9624.29 14027.57
-2210.6399 9627.0703 14030.58
-2202.52 9625.5703 14021.63
-2196.53 9624.8604 14023.05
-2190.6201 9633.0303 14029.63
-2184.4299 9639.9805 14020.19
-2176.74 9644.6299 14025.65
-2169.3799 9642.2002 14022.83
-2163.6899 9642.79 14023.31
-2156.47 9649.5801 14029.05
-2434 9598.7197 14031.63
-2425.9299 9597.7998 14031.82
-2418.5701 9603.5703 14032.93
-2410.6101 9603.0498 14030.87
-2397.3501 9604.7803 14030.12
-2390.78 9609.8398 14033.4
-2383.1299 9610.5498 14036.05
-2374.3301 9606.5801 14029.01
-2363.8301 9619.5098 14027.55
-2355.9299 9619.1699 14027.27
-2347.1001 9619.0498 14027
-2334.8 9624.71 14030.68
-2328.46 9626.75 14028.5
-2320.96 9628.0596 14030.68
-2313.8899 9631.1504 14029.72
-2301.21 9635.3301 14032.73
-2292.8899 9633.2002 14029.92
-2285.3999 9634.5 14032.09
-2277.04 9632.1797 14027.58
-2271.0701 9635.8096 14033.52
-2264.8301 9634.1201 14032.02
-2256.1201 9630.2305 14026.67
-2250.6699 9636.0596 14032.96
-2245.48 9651.4404 14032.53
-2238.3999 9650.3604 14028.77
-2231.52 9645.8701 14021.82
-2220.98 9638.1904 14024.97
-2216.9199 9654.4199 14027.55
-2206.9299 9644.8301 14028.26
-2203.04 9657.5996 14027.55
-2192.8601 9642.8604 14022.52
-2188.55 9658.1797 14023.79
-2180.3201 9660.4902 14027.27
-2172.5601 9656.3096 14021.93
-2167.79 9661.04 14027
-2158.6699 9659.4199 14021.93
-2441.8 9606.25 14023.28
-2436.8701 9610.04 14025.33
-2429.05 9610.1504 14028.45
-2422.3201 9618.4502 14033.24
-2414.78 9619.6602 14033.71
-2400.8501 9618.8203 14029.2
-2393.8501 9622.1504 14029.95
-2385.0601 9622.25 14031.38
-2376.8899 9620.9102 14028.18
-2369.48 9618.6201 14025.37
-2359.5701 9634.0703 14027.58
-2343.8701 9637.9004 14027.58
-2331.8601 9640.8096 14027.58
-2323.54 9638.7695 14024.86
-2315.73 9642.9199 14025.13
-2303.75 9645.9902 14026.83
-2295.8401 9645.5996 14026.56
-2288.6899 9648.3799 14029.48
-2280.3799 9646.3096 14026.75
-2273.3401 9645.4502 14024.69
-2267.74 9646.5303 14028.65
-2259.24 9643.5303 14024.62
-2252.9199 9645.6904 14024.15
-2247.96 9662.0996 14026.63
-2240.8899 9661.0801 14022.95
-2235.1799 9661.71 14023.43
-2225.23 9656.6201 14030.35
-2220.3701 9669.4297 14027.93
-2209.5801 9656.4004 14023.67
-2206.0601 9670.8701 14025.4
-2197.24 9662.1396 14029.13
-2192.54 9675.7803 14027.93
-2184.05 9677.0098 14028.41
-2170.77 9674.3203 14024.86
-2454.72 9626.1602 14027.95
-2447.76 9629.7002 14036.05
-2440.8501 9625.75 14026.85
-2432.8101 9625.0303 14028.75
-2417.8799 9632.0195 14030.33
-2405.1599 9636.0996 14031.55
-2397.5601 9637.0996 14030.33
-2388.3301 9635.4697 14029.23
-2380.78 9636.6396 14029.7
-2374.21 9637.8301 14031.96
-2354.3899 9648.9102 14027.68
-2346.8799 9650.2803 14024.2
-2336.51 9660.0498 14034.15
-2327.9099 9656.9199 14028.43
-2319.9399 9660.4199 14029.18
-2307.73 9662.6504 14029.65
-2300.21 9663.9502 14031.83
-2292.6499 9665.0703 14032.3
-2284.3201 9662.9902 14029.58
-2278.0801 9665.5498 14032.5
-2271.26 9661.46 14028.96
-2264.1399 9664.4697 14033.66
-2256.48 9665.1201 14030.66
-2245.1499 9679.46 14028.22
-2239.04 9678.4004 14026.25
-2228.0901 9669.04 14026.98
-2213.79 9674.79 14028.96
-2200.4099 9676.0596 14026.51
-2195.3401 9688.1504 14024.47
-2186.8401 9689.3799 14024.95
-2180.24 9690.4404 14027.21
-2173.78 9692.0898 14028.91
-2165.95 9692 14026.38
-2458.74 9641.9297 14029.53
-2450.1899 9639.29 14027.2
-2445.3 9643.2803 14030.96
-2439.4199 9651.1699 14034.03
-2430.21 9649.7695 14034.63
-2421.2 9645.2197 14028.16
-2414.3799 9649.4102 14030.13
-2400.6399 9649.4697 14026.93
-2392.6799 9653 14033.34
-2385.27 9654.8301 14033.34
-2377.8799 9652.7305 14032.25
-2368.1101 9668.9102 14034.03
-2351.5601 9669.5195 14030.76
-2342.27 9655.4902 14032.66
-2338.78 9673.5098 14031.98
-2331 9673.7998 14031.23
-2323.1201 9673.6602 14027
-2311.3101 9677.6299 14030.01
-2302.96 9675.5195 14027.2
-2295.3899 9676.6299 14027.68
-2287.8501 9677.9199 14029.86
-2266.8 9675.79 14027.27
-2258.5701 9674.0996 14022.29
-2251.6001 9677.7598 14026.52
-2243.49 9697.6396 14032.73
-2232.3201 9687.4199 14032.25
-2222.97 9680.7598 14021.54
-2216.8201 9688.0596 14026.79
-2210.22 9689.0703 14028.97
-2204.3999 9693.6201 14030.55
-2198.9399 9704.0195 14026.05
-2190.23 9704.4102 14025.3
-2182.8301 9701.9697 14022.51
-2176.76 9705.3701 14026.74
-2479.48 9657.5098 14033.81
-2463.6399 9661.1299 14036.07
-2452.6799 9649.0596 14020.05
-2448.8601 9657.3203 14030
-2441 9657.4199 14033.13
-2433.3201 9662.1396 14031.22
-2424.72 9659.2695 14027.2
-2417.6899 9662.6299 14027.95
-2404.78 9666.1104 14029.73
-2397.02 9670.5303 14026.04
-2388.95 9669.7402 14033.61
-2381.98 9669.3799 14035.04
-2375.26 9666.0098 14031.02
-2369.79 9679.7803 14028.09
-2362.04 9680.29 14029.05
-2354.5701 9681.9102 14027.35
-2344.6399 9665.29 14025.51
-2341.9399 9686.5596 14028.09
-2334.1899 9687.04 14029.05
-2327.1201 9690.3301 14029.79
-2314.48 9690.8799 14027.83
-2306.9299 9692.2002 14030
-2299.76 9695.0596 14033
-2291.1399 9691.8301 14027.2
-2284.74 9693.7998 14030.69
-2277.6799 9688.7998 14025.84
-2270.51 9691.6396 14028.85
-2262.6699 9691.6299 14026.32
-2256.48 9698.7402 14035.52
-2248.98 9695.9697 14029.32
-2246.3701 9710.0596 14029.32
-2234.78 9698.0996 14026.32
-2227.79 9701.75 14030.55
-2220.0601 9706.4805 14030.34
-2213.45 9703.25 14028.1
-2207.4199 9706.8896 14028.37
-2201.22 9718.3496 14025.09
-2193.8201 9720.29 14026.87
-2186.99 9720.4404 14027.83
-2179.9299 9719.5098 14025.77
-2486.52 9658.0498 14034.16
-2483.9099 9674.7803 14036.1
-2474.26 9671.8096 14028.68
-2466.3501 9671.7598 14030.11
-2458.6399 9672.5303 14032.77
-2452.2 9670.5195 14027.8
-2443.7 9668.0996 14027.27
-2437.0901 9677.0898 14031.55
-2428.8999 9675.9102 14029.98
-2422.73 9682.75 14035.78
-2408.28 9680.1699 14028.76
-2399.3899 9680.0898 14028.49
-2394.1499 9690.7803 14031.33
-2385.8301 9685 14034.9
-2381.26 9694.4404 14029.16
-2374.0701 9697.29 14032.09
-2364.8601 9691.8496 14024.4
-2358.78 9699.2305 14029.64
-2348.4199 9680.8604 14025.3
-2345.97 9703.2402 14030.87
-2336.98 9698.6104 14024.4
-2331.5 9708.5703 14033.39
-2318 9705.6396 14026.36
-2310.45 9706.9502 14028.54
-2301.8701 9703.9697 14024.53
-2295.7 9711.1104 14033.73
-2287.05 9703.6104 14023.52
-2280.95 9702.71 14023.17
-2275.23 9711.7803 14036.6
-2266.3701 9707.4902 14027.88
-2261.6599 9720.9805 14024.94
-2255.54 9724.25 14027.46
-2248.46 9723.3604 14025.42
-2238.8401 9715.71 14030.41
-2233.3501 9730.2598 14028.68
-2222.51 9717.2197 14024.48
-2220.1001 9732.4004 14027.46
-2210.04 9718.4199 14023.65
-2205.3601 9736.6504 14028.68
-2196.8201 9733.5703 14024.67
-2188.8601 9733.1104 14024.4
-2489.9199 9671.2402 14031.95
-2486.2 9683.71 14027.69
-2478.52 9688.4404 14031.44
-2470.8 9689.2402 14034.09
-2462.22 9686.5801 14031.78
-2456.8601 9688.9004 14033.08
-2448.71 9687.9199 14033.22
-2440.4199 9690.2998 14029.34
-2432.6101 9690.6797 14028.6
-2425.76 9694.8799 14030.56
-2413.02 9699.2197 14033.56
-2403.52 9696.75 14031.26
-2395.71 9697.0898 14030.51
-2388.8799 9697.3896 14031.47
-2385.72 9712.5996 14032.66
-2377.1101 9709.7002 14028.64
-2368.5 9706.7695 14024.63
-2361.5801 9710.7402 14024.9
-2353.52 9701.8799 14034.34
-2349.8 9719.0898 14032.39
-2341.2 9716.1396 14028.38
-2335.0901 9723.5303 14033.61
-2327.4299 9720.3398 14029.6
-2313.8201 9721.1104 14027.64
-2306.6101 9723.9199 14030.56
-2298.6399 9723.5303 14030.3
-2291.1899 9721.1602 14027.51
-2285.49 9722.0098 14029.69
-2277.53 9721.5996 14029.43
-2269.4199 9720.5596 14023.98
-2265.74 9738.5498 14028.91
-2259.01 9739.2197 14027.69
-2252.3301 9740.0801 14028.17
-2242.25 9730.4902 14028.95
-2237.1899 9746.9902 14031.44
-2228.1399 9741.79 14027.16
-2223.3201 9746.5303 14026.47
-2213.8601 9735.21 14026.5
-2208.1799 9749.0801 14025.25
-2186.8101 9750.2002 14025.86
-2493.75 9686.1201 14032.18
-2490.47 9700.3398 14030.43
-2482.5601 9704.2305 14032.95
-2466.02 9701.54 14032.08
-2458.79 9700.4102 14026.64
-2453.3601 9706.3203 14038.49
-2444.1699 9705.21 14029.56
-2436.1399 9704.7402 14027.6
-2430.79 9714.9697 14038.27
-2416.3101 9712.4502 14031.34
-2406.8 9709.9697 14029.04
-2399.6101 9712.8496 14031.96
-2392.77 9713.1504 14032.92
-2388.76 9724.9902 14029.21
-2380.3501 9722.9297 14026.42
-2373.21 9726.04 14031.12
-2366.27 9730.0195 14031.38
-2359.22 9729.4502 14031.12
-2351.75 9727.1396 14022.67
-2344.55 9730.04 14025.67
-2338.0701 9735.9297 14030.16
-2331.4299 9737.04 14032.34
-2317.3701 9736.0596 14027.86
-2309.3501 9735.4805 14025.89
-2301.3601 9735.04 14025.55
-2294.6699 9735.9199 14026.03
-2291.1101 9745.9102 14032.82
-2280.03 9732.2695 14023.47
-2272.9199 9735.5801 14024.29
-2262.5 9754.25 14027.99
-2256 9755.9697 14029.68
-2244.71 9741.1699 14022.99
-2239.6399 9757.6699 14025.46
-2229.3799 9747.2197 14025.03
-2218.1299 9758.25 14026.64
-2211.3799 9763.2197 14024.24
-2204.3301 9766.8799 14028.46
-2196.1899 9765.6904 14028.6
-2189.79 9763.5 14023.63
-2496.9299 9698.4805 14028.73
-2495.2 9718.75 14035.66
-2478.1499 9718.0498 14031.66
-2468.6699 9711.96 14024.4
-2462.1399 9713.6201 14024.4
-2455.3899 9714.3496 14028.76
-2448.3201 9721.6699 14030.58
-2440.97 9723.9902 14034.07
-2433.24 9724.7598 14031.07
-2419.6001 9725.6699 14029.11
-2410.0801 9723.2002 14026.8
-2402.03 9722.6504 14024.76
-2397.95 9734.2197 14030.58
-2393.28 9743.3896 14034.36
-2385.0701 9742.21 14032.88
-2377.4399 9743.3896 14033.36
-2369.9199 9745.0195 14031.66
-2362.4299 9742.6904 14028.88
-2356.6201 9747.2803 14030.36
-2348.78 9747.5801 14029.62
-2341.8799 9751.79 14031.66
-2333.78 9746.8496 14025.14
-2320.95 9751.0703 14028.14
-2313.51 9753.04 14029.85
-2305.1101 9750.9004 14027.06
-2298.8201 9753.54 14030.07
-2292.3401 9751.1396 14028.99
-2284.1001 9749.6396 14025.72
-2278.6499 9760.0898 14026.84
-2269.79 9755.9297 14031.17
-2259.6699 9771.8604 14031.18
-2251.1699 9769.21 14030.58
-2233.21 9763.96 14027.77
-2227.29 9763.9297 14028.73
-2220.1001 9766.9502 14027.77
-2214.5901 9777.3799 14023.21
-2206.75 9777.5703 14022.48
-2199.3201 9779.6504 14025.88
-2503.23 9722.9297 14031.34
-2498.1399 9730.21 14030.88
-2486.54 9719.79 14032.67
-2481.74 9732.1201 14030.63
-2473.1201 9729.46 14028.33
-2467.23 9733.7197 14032.07
-2459.1699 9729.3203 14029.04
-2450.0601 9732.54 14024.59
-2444.72 9738.9102 14034.26
-2435.8999 9735.3896 14025.08
-2430.29 9740.7197 14031.82
-2424.1699 9744.04 14034.26
-2415.23 9743.9805 14034
-2406.95 9742.5703 14030.74
-2399.9299 9742.2305 14032.19
-2395.6899 9753.1797 14027.14
-2387.6299 9752.6699 14025.19
-2381.1001 9758.3896 14033.63
-2373.55 9759.96 14031.85
-2366.05 9757.6396 14029.07
-2359.3701 9758.6396 14023.97
-2353.23 9766.04 14034.85
-2344.24 9761.5996 14024.45
-2337.26 9765.54 14030.37
-2324.3101 9765.1797 14027.11
-2318.1001 9772.3701 14036.3
-2309.22 9768.2803 14029.3
-2302.1499 9767.6602 14029.04
-2295.26 9763.5703 14025.52
-2289.5 9772.71 14027.6
-2280.3201 9767.2695 14027.23
-2272.48 9767.5098 14026.49
-2265.52 9767.2803 14023.96
-2261.54 9779.9297 14021.45
-2253.22 9778.0898 14033.41
-2244.24 9777.6797 14031.45
-2236.6299 9778.9502 14027.96
-2230.71 9778.9199 14028.93
-2222.9299 9779.3896 14024.3
-2218.78 9795.9004 14028.44
-2210.53 9794.3301 14025.19
-2203.0901 9796.4102 14028.59
-2196.9299 9795.3203 14026.63
-2515.1899 9746.1396 14035.61
-2512.5 9735.7305 14031.99
-2505.95 9733.5098 14036.67
-2491.96 9741.0098 14031.99
-2493.53 9747.1299 14029.43
-2476.7 9743.5801 14027.37
-2470.8 9747.79 14031.03
-2464.25 9749.4297 14036.7
-2453.6101 9746.6602 14023.63
-2448.48 9753.8896 14034.51
-2439.8601 9751.2197 14026.55
-2433.8 9754.7998 14030.77
-2426.75 9758.4199 14033.29
-2417.6499 9753.7695 14026.78
-2411.0701 9759.2598 14033.44
-2403.3501 9756.1201 14029.45
-2391.9199 9770.21 14029.1
-2384.1101 9770.7402 14030.06
-2376.3201 9771.3203 14025.44
-2369.8501 9773.3096 14028.84
-2364.24 9778.8096 14031.62
-2355.5901 9775.8496 14027.62
-2348.45 9779.1602 14028.36
-2340.5901 9779.46 14027.62
-2328.4399 9782.5596 14029.33
-2321.04 9784.79 14032.81
-2312.77 9783.3096 14029.55
-2306.0901 9784.3896 14031.74
-2300 9783.75 14033.19
-2290.73 9777.9404 14023.75
-2283.6201 9781.4004 14026.19
-2278.01 9791.25 14027.85
-2272.0901 9795.5801 14033.29
-2266.21 9800.1299 14029.1
-2256.49 9792.29 14032.45
-2248.54 9796.4199 14027.04
-2239.6299 9792.0498 14024
-2235.1499 9798.3799 14024.11
-2226.53 9795.2402 14025.71
-2206.1001 9809.7695 14026.4
-2199.48 9806.6602 14020.15
-2520.9299 9737.5098 14021.74
-2518.8201 9760.2002 14034.54
-2508.1399 9745.8701 14031.4
-2503.05 9753.21 14031.02
-2497.3501 9762.04 14029.59
-2484.3899 9746.4199 14029.58
-2489.75 9767.4297 14038.51
-2473.72 9759.3096 14026.31
-2467.1101 9760.71 14030.2
-2459.3301 9769.3799 14035
-2450.8799 9763.4805 14025.58
-2444.4199 9769.46 14030.05
-2437.75 9770.6396 14032.24
-2429.77 9770.5596 14028.01
-2422.4399 9773.0596 14033.2
-2414.3401 9772.5098 14031.16
-2407.6899 9773.7197 14033.43
-2401.5 9776.8496 14028.5
-2396.6499 9789.5303 14035.51
-2386.8401 9785.9805 14030.3
-2380.3799 9788.0303 14028.12
-2373.9099 9790.0195 14031.52
-2366.6101 9788.6104 14024.38
-2359.2 9790.8203 14027.78
-2352.8301 9797.3896 14031.77
-2344.3899 9795.3301 14029.08
-2331.2 9794.1299 14024.61
-2324.3999 9798.9199 14031.75
-2315.98 9801.1201 14033.45
-2302.1899 9797.25 14030.91
-2294.25 9792.9805 14024
-2287.29 9797.0898 14025.96
-2279.27 9796.6904 14025.69
-2276.5801 9814.9805 14028.37
-2269.6499 9814.9902 14027.63
-2258.76 9806.46 14029.69
-2253.5901 9818.4199 14025.85
-2243.6699 9809.7197 14027.99
-2241.01 9824.0596 14029.59
-2228.77 9805.0703 14018.48
-2521.5601 9770.8203 14028.51
-2512.22 9761.6904 14032.84
-2509.3201 9777.6396 14033.46
-2502.28 9781.3203 14035.97
-2491.53 9774.4199 14025.82
-2484.0701 9772.5703 14026.46
-2478.55 9778.3398 14030.93
-2470.6101 9778.5303 14034.16
-2462.4399 9781.7197 14031.41
-2453.8999 9779.4902 14026.94
-2447.51 9781.79 14026.46
-2441.27 9784.7305 14031.16
-2434.1299 9788.0996 14031.9
-2426.3601 9788.9102 14034.65
-2417.6201 9785.75 14028.88
-2411.3701 9788.6904 14033.57
-2406.8899 9798.79 14027.29
-2398.21 9795.8701 14023.31
-2391.1201 9803.54 14034.18
-2383.8101 9802.1396 14027.04
-2378.3899 9808.5 14036.69
-2370.6499 9805.3301 14027.04
-2363.3799 9808.2002 14029.96
-2354.78 9805.5 14022.09
-2347.3501 9807.6904 14025.49
-2335.79 9813.4199 14030.93
-2328.52 9816.3096 14033.93
-2318.3 9810.9297 14026.21
-2305.26 9810.3398 14026.93
-2298.77 9812.29 14030.32
-2291.6101 9815.6201 14031.13
-2282.23 9813.6699 14028.37
-2278.72 9828.4902 14026.07
-2272.1201 9825.6699 14021.6
-2261.8301 9819.7695 14027.4
-2257.4399 9835.2002 14028.51
-2246.71 9823.0195 14025.71
-2516.0601 9776.6104 14032.97
-2514.27 9796.9297 14039.83
-2495.55 9790.1904 14027.17
-2488.54 9790.1602 14030.4
-2482.1299 9792.4805 14029.92
-2474.1699 9792.6201 14033.08
-2466 9795.8604 14030.4
-2457.23 9792.7305 14024.64
-2452.55 9801.9502 14034.06
-2444.52 9797.7803 14027.16
-2437.22 9800.5 14028.37
-2429 9799.5498 14028.61
-2421.74 9802.46 14031.53
-2413.79 9798.4805 14026.32
-2410.5801 9813.7998 14027.49
-2402.0901 9811.7305 14024.73
-2394.1499 9815.96 14030.65
-2388.0901 9819.7197 14030.9
-2381.8101 9822.6201 14035.6
-2374.49 9821.21 14028.46
-2367.01 9823.2305 14030.17
-2359 9823.0801 14025.95
-2351.5701 9825.3398 14029.43
-2339.99 9831.0801 14034.87
-2330.9299 9830.6699 14032.84
-2322.8799 9830.2998 14032.59
-2308.5901 9824.4902 14025.83
-2301.6899 9824.7305 14026.8
-2294.5 9828 14027.54
-2285.52 9827.8096 14027.29
-2276.1899 9843.29 14025.46
-2265.28 9834.7695 14027.54
-2250.55 9839.7998 14028.35
-2244 9837.1602 14025.59
-2231.77 9853.25 14023.76
-2519.9099 9791.5801 14033.17
-2517.23 9808.46 14035.07
-2508.49 9809.5195 14032.07
-2504.8899 9795.4404 14033.17
-2500.46 9809.4805 14033.52
-2491.1299 9804.2803 14027.6
-2477.0701 9804.0996 14028.24
-2469.9199 9811.4502 14030.03
-2461.8601 9811.1904 14029.79
-2456.0901 9816.0996 14033.03
-2448.6899 9814.4805 14029.79
-2440.95 9815.5098 14028.57
-2425.8301 9818.9805 14032.46
-2418.1101 9816.0498 14030.18
-2415.3301 9833.1396 14033.85
-2406.55 9829.96 14028.09
-2397.75 9830.7305 14029.06
-2383.98 9831.5801 14027.11
-2378.1101 9836.1904 14028.58
-2370.2 9836.5 14027.84
-2363.6499 9842.4404 14032.31
-2355.5801 9842.0898 14032.06
-2342.95 9843.5098 14031.33
-2333.8799 9843.1104 14029.3
-2325.76 9842.4697 14027.27
-2318.8401 9842.7197 14028.24
-2304.21 9839.75 14025.23
-2298.02 9843.0498 14027.74
-2289.1699 9843.5195 14027.01
-2282.3501 9844.1504 14025.71
-2279.27 9856.5898 14023.14
-2268.1499 9847.2197 14024.01
-2260.8501 9850.0703 14027.01
-2253.1499 9851.1396 14021.82
-2246.8401 9849.6104 14022.06
-2241.55 9861.3096 14033.42
-2524.2 9808.2695 14035.8
-2521.01 9823.1904 14033.45
-2502.74 9818.4102 14025.03
-2494.71 9818.3701 14026.49
-2480.8601 9819.0996 14028.43
-2473.49 9825.6104 14029
-2466.49 9829.6602 14034.92
-2458.3301 9825.0303 14024.54
-2450.6899 9822.5098 14020
-2444.6699 9830.46 14028.67
-2434.3501 9825.1797 14020.97
-2428.1599 9832.4902 14030.12
-2421.1699 9828.4502 14026.63
-2417.51 9842.0303 14025.27
-2411.0801 9848.46 14033.21
-2401.6201 9846.6104 14030.46
-2394.1799 9848.9102 14028.27
-2387.99 9848.1201 14028.03
-2383.3799 9857.9697 14036.94
-2374.45 9854.0996 14031.67
-2366.8401 9855.7197 14029.97
-2357.9299 9851.9004 14024.78
-2349.4399 9841.4805 14027.84
-2345.99 9860.5 14033.94
-2337.23 9857.25 14028.19
-2308.1499 9856.5703 14027.93
-2302.55 9862.4502 14034.09
-2292.6599 9858.5303 14027.12
-2289.3401 9874.2803 14026.08
-2282.95 9872.5195 14024.54
-2273.22 9869.25 14034.09
-2268.1499 9881.8799 14029.73
-2257.3899 9869.7002 14026.96
-2253.74 9884.2695 14028.51
-2243.99 9872.0596 14027.45
-2526.8899 9818.6904 14028.02
-2492.6299 9833.8896 14025.35
-2484.5901 9833.8398 14026.82
-2476.8201 9838.8496 14026.65
-2469.1599 9840.29 14028.84
-2463.3101 9844.96 14030.3
-2456.8201 9847.0703 14033.78
-2448.99 9847.8398 14030.79
-2439.1499 9844.5303 14027.29
-2432.52 9850.1299 14034.02
-2425.1499 9848.6904 14032.48
-2421.78 9859.4199 14027.37
-2414.1201 9860.8799 14029.64
-2405.0701 9860.7402 14029.32
-2397.6201 9863.0303 14027.13
-2391.4199 9862.25 14026.89
-2385.3201 9866.0098 14027.13
-2377.8701 9868.2998 14030.62
-2369.6599 9871.6602 14029.64
-2362.3 9870.1699 14028.11
-2352.6201 9854.7598 14025.51
-2348.6899 9871.8203 14027.38
-2340.1799 9869.6797 14024.63
-2332.25 9869.9697 14023.9
-2325.73 9871.9404 14027.29
-2311.46 9870.7197 14026.81
-2303.28 9869.8701 14023.08
-2295.75 9871.8301 14024.78
-2292.8201 9889.2998 14026.16
-2287.5901 9892.5898 14030.37
-2275.8401 9880.5898 14027.54
-2271.21 9895.1904 14027.37
-2259.8301 9880.3799 14020.89
-2256.5901 9896.7305 14024.94
-2444.1499 9864.7402 14034.82
-2436 9864.25 14032.88
-2428.21 9861.0996 14028.91
-2401.8999 9880.6396 14030.92
-2396.1201 9881.6299 14033.2
-2390.01 9885.4004 14033.44
-2380.1201 9881.8096 14028.26
-2373.47 9887.5098 14030.92
-2365.6899 9884.3096 14026.96
-2356.98 9873.04 14028.83
-2351.02 9881.6299 14020.08
-2344.3101 9887.1104 14026.72
-2334.98 9881.4902 14019.03
-2324.1001 9890.5195 14033.36
-2315.3899 9887.5 14029.4
-2307.3501 9887.3096 14025.18
-2299.26 9886.9004 14024.94
-2296.9199 9906.96 14029.95
-2290.0601 9903.2695 14024.28
-2279.1001 9894.7598 14026.4
-2275.47 9913.7695 14032.46
-2264.0701 9898.9004 14025.91
-2356.25 9903.5996 14030.01
-2348.9099 9906.5195 14033.01
-2339.3601 9900.0498 14024.1
-2333.79 9906.1699 14031.96
-2318.71 9901.6699 14028.25
-2311.47 9904.9502 14028.97
-2303.1599 9903.7002 14027.52
-2300.22 9921.1904 14028.86
-2294.1499 9920.9404 14028.06
-2282.77 9910.7002 14027.76
-2349.8 9910.25 14028.38
-2331.1799 9920.6201 14033.55
-2322.1799 9916.4902 14026.59
-2314.99 9920.04 14029.1
-2307.4199 9922.0098 14030.8
0 0 0 1 0 0 0 1 0 0 0 1 0 0 0 0 0 1084 1 0 0
