ply
format ascii 1.0
comment PCL generated
element vertex 74
property float x
property float y
property float z
element camera 1
property float view_px
property float view_py
property float view_pz
property float x_axisx
property float x_axisy
property float x_axisz
property float y_axisx
property float y_axisy
property float y_axisz
property float z_axisx
property float z_axisy
property float z_axisz
property float focal
property float scalex
property float scaley
property float centerx
property float centery
property int viewportx
property int viewporty
property float k1
property float k2
end_header
-2008.5699 9340.54 14177.44
-2001.63 9338.7305 14174.08
-2010.1801 9348 14166.75
-2003.95 9349.5596 14168.54
-1996.99 9347.7305 14165.18
-1988.97 9345.25 14160.58
-1982.33 9344.8896 14158.01
-1972.72 9339.2598 14148.36
-1966.76 9342.0596 14149.14
-2007.33 9365.3301 14170.44
-2000.51 9364.21 14166.71
-1991.8 9358.5498 14158.76
-1983.55 9355.04 14151.14
-1975.88 9354.25 14149.11
-2031.76 9374.0098 14183.31
-2023.24 9369.3896 14171.04
-2015.09 9370.8203 14167.63
-2008.5601 9375.4805 14163.55
-2003.53 9378.3301 14166.11
-1994.8 9372.6699 14158.17
-1986.02 9366.6904 14146.83
-1978.16 9365.0195 14143.48
-2043.3101 9396.8398 14190.58
-2034.29 9385.6699 14178.97
-2026.29 9383.5195 14170.43
-2019.27 9390.2695 14163.34
-2012.46 9393.6699 14167.61
-2007.08 9394.9902 14169.31
-1997.46 9385.1504 14155.09
-1989.1899 9381.6299 14147.47
-2044.2 9400.9404 14174.8
-2037.14 9398.8203 14175.41
-2028.8101 9395.1797 14166.09
-2023.02 9407.7402 14167.77
-2014.95 9405.2803 14163.18
-2008.5 9401.5996 14157.36
-2000.25 9398.29 14151.53
-1991.62 9393.1201 14141.44
-2055.1699 9420.9004 14182.09
-2046.74 9412.5996 14170.45
-2039.85 9411.3203 14172.29
-2031.6801 9408.4805 14164.22
-2026.08 9421.9297 14167.21
-2017.08 9415.2305 14156.26
-2011.16 9414.0801 14154.24
-2001.83 9405.71 14140.81
-1994.4399 9406.4199 14139.57
-2057.52 9431.6797 14176.39
-2050.1699 9428.3799 14172.28
-2043.09 9426.2803 14172.88
-2034.02 9423.7002 14164.9
-2028.5699 9433.54 14162.76
-2020.3 9430.25 14156.94
-2013.78 9426.3398 14149.33
-2005.92 9424.9004 14147.78
-2060.6201 9445.8799 14175.81
-2053.21 9442.3604 14169.91
-2045.8 9438.7695 14169.74
-2038.11 9442.6699 14170.07
-2031.58 9447.5195 14160.39
-2022.25 9439.3701 14148.76
-2016.63 9439.6504 14147.44
-2007.67 9433.1396 14138.29
-2063.52 9459.2002 14173.89
-2056.3 9456.5498 14169.32
-2047.96 9453.1104 14169.08
-2041.17 9456.8301 14169.38
-2033.54 9456.6396 14152.2
-2024.91 9451.7998 14145.53
-2019.12 9451.3096 14143.06
-2050.99 9467.0898 14166.69
-2043.87 9469.3301 14166.22
-2046.1899 9480.1104 14160.49
-2039.4399 9484.1104 14149.58
0 0 0 1 0 0 0 1 0 0 0 1 0 0 0 0 0 74 1 0 0
