ply
format ascii 1.0
comment PCL generated
element vertex 430
property float x
property float y
property float z
element camera 1
property float view_px
property float view_py
property float view_pz
property float x_axisx
property float x_axisy
property float x_axisz
property float y_axisx
property float y_axisy
property float y_axisz
property float z_axisx
property float z_axisy
property float z_axisz
property float focal
property float scalex
property float scaley
property float centerx
property float centery
property int viewportx
property int viewporty
property float k1
property float k2
end_header
-616.20001 7480.5098 13127.38
-615.84998 7476.2998 13098.11
-610.51001 7481.5601 13109.42
-605.84998 7486.4102 13115.74
-601.03003 7489.3198 13123.06
-595.97998 7489.4399 13119.65
-590.71002 7495.9399 13130.23
-584.65997 7492.5098 13121.98
-627.64001 7487.77 13113.94
-622.59998 7479.29 13101.38
-615.63 7473.5801 13071.55
-610.90997 7486.4399 13096.13
-605.75 7485.1899 13091.78
-600.73999 7485.71 13093.44
-595.94 7488.8999 13095.41
-589.71997 7492.5601 13102.36
-584.63 7492.0898 13099.4
-579.78003 7494.8799 13105.05
-575.81 7499.6099 13111.28
-570.23999 7502.4502 13116.93
-564.63 7504.7798 13124.6
-558.96002 7506.3398 13122.22
-549.85999 7510.5698 13125.49
-632.97998 7491.0298 13094.18
-627.53998 7486.5498 13089.97
-623.07001 7484.9102 13089.39
-616.02002 7478.2598 13056.52
-610.62 7482.9199 13068.17
-605 7484.7998 13069.21
-600.76001 7486.02 13072.16
-596.02002 7489.9399 13075.43
-589.66998 7491.9502 13078.04
-584.87 7495.25 13081.66
-579.09003 7495.1899 13083.69
-575.89001 7500.6602 13091.3
-570.03998 7499.73 13090.36
-564.59998 7504.3599 13102.02
-558.98999 7506.7998 13111.35
-553.97998 7507.5698 13116.43
-549.71002 7508.6001 13100.22
-543.35999 7510.8501 13106.23
-537.79999 7514.0098 13108.11
-532.19 7516.71 13112.1
-641.32001 7512.3701 13106.24
-633.58002 7498.1201 13084.79
-627.88 7490.6099 13075.29
-622.65002 7479.8901 13058.85
-616.09998 7479.2598 13036.56
-610.26001 7478.4902 13037.27
-604.82001 7482.6201 13042.2
-600.84003 7487.0298 13052.2
-596.15997 7491.7202 13056.76
-589.82001 7493.77 13059.45
-584.16998 7495.5801 13060.39
-579.21997 7496.8999 13063.43
-575.73999 7498.6699 13066.04
-569.45001 7501.5698 13071.68
-564.45001 7502.3599 13076.75
-558.90002 7505.6099 13087.47
-554.15997 7510.0498 13097.47
-543.48999 7512.6499 13087.54
-537.31 7517.3901 13092.11
-532.42999 7520.04 13096.1
-527.45001 7521.3501 13116.66
-522.83002 7527.77 13127.24
-516.78998 7524.27 13118.99
-510.44 7526.9102 13105.37
-500.91 7536.21 13123.25
-495.64999 7533.5 13117.96
-627.06 7480.8599 13035.12
-622.47998 7477.8501 13033.6
-605.51001 7491.21 13035.5
-600.85999 7487.2798 13030.94
-596.06 7490.4702 13032.9
-589.77002 7493.2202 13036.8
-584.31 7497.3799 13041.81
-579.16998 7496.3501 13040.79
-575.83002 7499.8799 13056.57
-569.46002 7501.71 13048.76
-564.40002 7501.71 13052.44
-558.85999 7505.0801 13064.81
-553.34003 7508.6401 13063.01
-549.78003 7509.52 13078.58
-543.51001 7512.9199 13066.27
-536.95001 7512.3398 13061.56
-532.34003 7518.7798 13072.13
-527.37 7520.1602 13092.78
-522.73999 7526.5801 13103.35
-516.90002 7525.9399 13098.64
-510.56 7528.7002 13086.68
-505.47 7528.5098 13104.65
-500.57001 7531.0498 13091.03
-495.57999 7532.2998 13094.08
-490.22 7539.1099 13109.63
-483.88 7542.1099 13117.03
-478.29999 7545.7598 13125.64
-473.85999 7544.52 13114.28
-468.32001 7548.79 13122.53
-579.71997 7503.4102 13031.39
-575.85999 7500.29 13045.71
-564.41998 7501.9399 13031.18
-559.04999 7507.6201 13047.53
-553.42999 7509.8398 13053.54
-548.84998 7506.79 13052.02
-543.53003 7513.1602 13045
-537.40002 7518.6602 13050.86
-532.25 7517.5298 13048.26
-527.42999 7521 13071.05
-522.54999 7523.8198 13076.79
-516.13 7525.3101 13065.56
-505.70001 7531.8301 13088.65
-500.38 7528.2598 13064.47
-495.79001 7535.6001 13078.08
-489.31 7536.3901 13083.07
-483.79001 7540.8501 13093.06
-478.32001 7546.0498 13104.35
-473.85001 7544.3198 13103.78
-468.20999 7546.98 13107.76
-461.87 7550.2202 13102.54
-456.26001 7553.52 13114.92
-451.42001 7557.79 13123.25
-446.54999 7561.4702 13124.76
-440.81 7562.73 13127.81
-549.20001 7511.5601 13038.64
-543.75 7516.29 13027.36
-532.91998 7526.8799 13042.84
-527.53998 7522.5698 13041.97
-522.46002 7522.5098 13052.83
-516.37 7528.75 13059.98
-510.41 7526.52 13059.77
-505.51001 7529.04 13062.09
-500.95999 7536.8799 13057.75
-494.98001 7534.2202 13052.46
-489.23001 7535.1401 13059.2
-483.70999 7539.6001 13069.18
-478.32999 7546.3101 13083.07
-473.87 7544.5801 13082.5
-468.32001 7548.7402 13089.08
-461.89999 7550.6899 13091.76
-456.17999 7552.29 13091.03
-451.20001 7554.1001 13093.63
-446.48001 7560.25 13100.87
-440.82001 7563.0098 13106.51
-434.31 7563.7202 13102.74
-428.79999 7569.1899 13117.44
-423.73001 7569.5898 13119.1
-418.64999 7569.9399 13103.24
-413.13 7575.6099 13112.5
-406.66 7576.96 13117.13
-401.73999 7580.5698 13125.82
-527.72998 7525.2998 13035.18
-522.97998 7530.02 13032.65
-516.22998 7526.73 13034.82
-510.59 7529.0601 13042.48
-505.14001 7534.3101 13037.93
-500.76999 7534.04 13031.2
-495.19 7537.4702 13036.48
-489.59 7540.6602 13047.1
-483.97 7543.6299 13054.49
-478.16 7543.5 13056.51
-473.79001 7543.27 13058.54
-468.29001 7548.23 13066.5
-461.85999 7550.1299 13069.09
-456.01001 7549.4902 13064.47
-451.54001 7559.6899 13081.61
-446.45001 7559.7002 13078.2
-440.70001 7560.96 13081.25
-434.45999 7566.27 13085.43
-428.89999 7570.9502 13098.75
-423.64999 7568.1802 13093.47
-406.75 7578.7598 13098.52
-401.67001 7579.2798 13101.84
-396.60001 7579.8398 13105.25
-391.79001 7585.46 13114.51
-385.23001 7585.3799 13109.44
-379.51999 7587.98 13113.42
-374.67999 7593.1699 13117.6
-370.26999 7592.5801 13116.21
-489.84 7544.5298 13030.75
-484.07001 7545.21 13034.15
-478.22 7544.4502 13036.54
-474.07999 7547.9102 13043.48
-467.70999 7550.6201 13047.46
-461.97 7551.8999 13050.5
-456.48001 7557.1802 13054.69
-451.41 7557.6099 13056.35
-446.37 7558.4102 13054.33
-440.92999 7564.8599 13064.88
-434.38 7564.9399 13061.47
-428.70001 7567.3799 13070.88
-423.75 7569.9702 13074.86
-418.64001 7569.8301 13069.79
-413.07999 7574.7002 13077.66
-406.64001 7576.5601 13071.59
-400.97 7579.5498 13080.55
-396.85001 7584.52 13090.17
-391.81 7585.71 13093.22
-385.42999 7589.4302 13094.72
-379.69 7591.2798 13097.4
-365.34 7596.3501 13110.71
-358.17001 7599.0801 13107.58
-353.32001 7604.6401 13116.75
-348.20999 7604.6602 13122.19
-478.76001 7553.0498 13029.81
-473.64999 7552.75 13030.17
-467.85999 7553.1099 13030.17
-462.17001 7555.1499 13034.51
-456.72 7561.1899 13039.99
-450.84 7560.1602 13039.06
-446.47 7560.1099 13035.65
-440.76001 7562 13038.33
-433.63 7564.4302 13038.9
-428.88 7570.5098 13053.22
-423.72 7569.3701 13052.2
-418.57999 7568.7202 13056.33
-413.10999 7575.1499 13066.88
-406.64999 7576.7598 13050.31
-401.01999 7580.5098 13060.57
-396.73999 7582.4199 13064.91
-391.16 7587.3398 13072.86
-385.17001 7584.27 13064.18
-379.88 7595.1299 13080.93
-374.60001 7591.6201 13083.12
-370.26001 7592.46 13082.75
-364.53 7594.54 13095.94
-358.17999 7599.3101 13086.29
-353.29999 7604.1099 13094.16
-348.22 7604.8999 13100.89
-343.82001 7604.6001 13102.92
-338.29001 7611.52 13120.21
-332.29001 7608.1699 13108.2
-326.60999 7611.9502 13102.68
-321.75 7618.4199 13114.89
-434.14999 7573.6499 13031.79
-428.92999 7571.4502 13033.24
-423.82001 7571.1099 13033.61
-418.67001 7570.4102 13037.65
-412.95001 7572.29 13040.33
-406.89999 7581.5 13036.9
-401.10999 7582.25 13041.97
-396.70999 7581.8501 13042.33
-390.97 7583.6602 13044.92
-385.39999 7588.8999 13049.1
-379.70001 7591.5098 13053.08
-374.54999 7590.7002 13048.37
-370.53 7597.8501 13060.3
-364.5 7593.9502 13073.27
-358.26001 7601.0098 13067.6
-353.20001 7602.0098 13068.89
-348.26001 7605.8701 13080.9
-343.89999 7606.3701 13084.31
-338.29999 7611.77 13098.9
-332.32001 7608.8398 13076.11
-326.88 7618.29 13091.92
-321.79999 7619.3901 13094.88
-317.39001 7619.1099 13112.86
-311.06 7625.23 13104.13
-305.31 7627.9302 13125.72
-413.29999 7578.5801 13029.6
-407.13 7585.73 13032.69
-391.22 7588.4502 13031.6
-385.48999 7590.6201 13030.51
-379.75 7592.4302 13033.1
-374.17001 7597.8398 13039.02
-369.91 7600.1899 13041.24
-364.76001 7599.5098 13061.23
-358.23001 7600.25 13043.27
-353.17001 7601.4302 13046.31
-348.32999 7607.4302 13060.54
-343.76999 7603.4902 13057.75
-338.29999 7611.8398 13075.94
-332.56 7614.3501 13063.98
-326.85001 7617.6802 13069.25
-321.67001 7616.5098 13068.32
-317.53 7622.3901 13096.83
-310.14999 7620.8701 13074.97
-305.22 7625.8398 13100.44
-299.41 7626.8301 13101.73
-295.04001 7627.5 13099.71
-289.48001 7635.4902 13114.5
-283.57999 7634.3301 13113.57
-277.01999 7635.46 13100.67
-272.09 7641.1602 13111.57
-267.60999 7638.7998 13113.04
-380.20999 7601.7798 13027.63
-358.51999 7606.54 13032.53
-353.35001 7605.27 13029.94
-338.07001 7606.6299 13045.42
-332.56 7614.3799 13041.04
-326.76001 7615.5698 13044.08
-321.67999 7616.6699 13047.04
-317.39999 7619.3301 13068.52
-310.25 7623.3101 13057.57
-305.29001 7627.54 13081.73
-299.56 7630.7202 13085.34
-295.13 7629.96 13082.29
-289.35001 7631.8701 13086.63
-283.54999 7633.7798 13090.97
-277.17001 7639.5298 13086.02
-272.17999 7643.6699 13094.24
-267.81 7644.3901 13100.98
-261.29999 7647.2002 13108.27
-255.39 7646.1401 13109
-249.66 7650.3398 13117.32
-239.47 7653.3101 13101.65
-343.60001 7615.9399 13034.51
-337.45001 7609.1201 13028.11
-332.07001 7619.9399 13028.99
-326.92999 7619.54 13029.36
-321.88 7621.4502 13033.7
-317.44 7620.2998 13048.61
-310.38 7626.5298 13041.55
-304.47 7625.29 13054.81
-299.5 7629.3301 13061.37
-294.41 7630.1499 13061
-289.32001 7631.29 13064.05
-283 7638.5698 13077.54
-277.12 7638.1299 13062.05
-271.98999 7638.3101 13062.05
-267.84 7645.3398 13080.97
-261.25 7645.8799 13084.38
-255.47 7648.6499 13091.67
-249.71001 7652.0498 13098.6
-243.96001 7655.9502 13103.5
-239.55 7655.8101 13084.31
-233.08 7660.5 13106.37
-227.28999 7663.6201 13109.97
-221.45 7665.1699 13110.9
-217.11 7667.75 13116.53
-211.34 7672.2402 13121.07
-316.81 7622.73 13031.22
-299.54001 7630.23 13041.38
-294.32001 7627.9702 13035.75
-289.39001 7632.9399 13045.35
-282.82999 7634.1299 13048.39
-277.17001 7639.6499 13041.69
-272.16 7643.0498 13048.61
-267.89001 7646.9102 13060.69
-261.12 7642.1401 13056.44
-255.38 7645.7402 13065.11
-249.74001 7653.0298 13078.68
-243.87 7653.04 13076.93
-239.46001 7652.8701 13057.75
-233.08 7660.6699 13085.06
-227.25 7662.23 13085.99
-221.46001 7665.3398 13089.6
-216.38 7667.96 13095.22
-211.22 7667.8301 13091.91
-205.42 7670.8901 13102.6
-198.91 7675.1602 13112.49
-193 7674.3501 13093.58
-188.72 7680.0498 13104.56
-182.19 7684.5 13116.19
-294.72 7638.1401 13031.64
-289.60001 7638.4702 13033.3
-282.98001 7638.1001 13033.67
-277.34 7644.4102 13028.34
-271.42999 7643.1899 13027.33
-267.14001 7646.27 13038.02
-261.23001 7645.3599 13040.41
-255.42999 7647.25 13044.75
-249.53999 7646.9502 13046.78
-243.97 7656.2598 13060.9
-238.82001 7656.0498 13041.64
-233.14 7662.3799 13066.44
-227.23 7661.48 13061.74
-221.28 7659.1802 13056.11
-216.41 7668.8701 13075.21
-210.52 7668.75 13071.9
-205.57001 7676.4102 13090.44
-198.96001 7676.8999 13093.85
-193.05 7676.0698 13074.95
-188.75999 7681.73 13085.84
-182.2 7684.6602 13094.88
-177.03999 7684.9102 13096.54
-170.42999 7685.6899 13096.17
-165.39 7691.48 13108.72
-160.25 7692.5801 13104.66
-154.45 7697.75 13117.58
-148.5 7695.73 13108.17
-261.45001 7651.6299 13029.65
-255.50999 7649.6899 13027.43
-249.64999 7650.1499 13030.75
-243.92999 7654.8599 13037.02
-233.06 7659.9902 13039.43
-227.16 7659.27 13036.48
-221.42 7663.9199 13042.66
-216.25999 7663.5698 13044.69
-210.48 7667.3198 13047.92
-205.39 7669.6099 13057.33
-198.22 7676.8799 13070.8
-193.13 7679.2798 13058.91
-188.72 7680.1499 13060.2
-182.14 7682.4702 13069.61
-177.00999 7683.4902 13072.55
-170.47 7687.21 13075.79
-165.34 7689.1802 13081.78
-160.24001 7691.9199 13081.97
-154.41 7695.5898 13092.29
-148.55 7698.2002 13090.82
-142.67999 7699.8901 13093.5
-244.17 7662.6602 13028.84
-233.28 7667.0801 13030.04
-216.46001 7670.6602 13035.3
-210.67 7674.3599 13038.44
-205.42 7671.1001 13036.96
-198.2 7676.23 13048.21
-193.16 7680.77 13038.54
-188.72 7680.25 13038.91
-182.14999 7682.5898 13048.3
-177.07001 7685.9399 13055.22
-170.49001 7688.0898 13055.78
-165.42999 7693.1499 13067.02
-160.19 7689.7002 13056.7
-154.39 7694.77 13067.95
-147.78999 7696.77 13066.85
-210.84 7680.5 13026
-204.92999 7679.73 13030.15
-198.35001 7681.75 13036.14
-193.34 7687.7998 13029.05
-188.22 7689.6401 13033.38
-182.19 7684.1899 13029.59
-176.32001 7685.23 13032.55
-170.52 7689.7598 13037.15
-164.66 7691.7402 13043.14
-160.27 7693.7002 13042.04
-154.44 7697.2002 13050.61
-170.64 7695.21 13024.99
-164.75 7695.6699 13028.39
-160.34 7696.8198 13025.91
0 0 0 1 0 0 0 1 0 0 0 1 0 0 0 0 0 430 1 0 0
