ply
format ascii 1.0
comment PCL generated
element vertex 265
property float x
property float y
property float z
element camera 1
property float view_px
property float view_py
property float view_pz
property float x_axisx
property float x_axisy
property float x_axisz
property float y_axisx
property float y_axisy
property float y_axisz
property float z_axisx
property float z_axisy
property float z_axisz
property float focal
property float scalex
property float scaley
property float centerx
property float centery
property int viewportx
property int viewporty
property float k1
property float k2
end_header
-2061.48 8635.25 14207.13
-2063.22 8646.1504 14202.01
-2073.6799 8660.5703 14202.56
-2064.6499 8652.1602 14189.18
-2055.76 8644.2803 14173.67
-2082.77 8676.5 14209.45
-2077.9099 8678.25 14207.32
-2067.74 8665.1201 14186.25
-2058.6799 8656.5303 14171.08
-2052.29 8659.1699 14175.83
-2079.1499 8683.4199 14193.12
-2069.55 8672.6699 14175.93
-2062.55 8672.8096 14175.09
-2055.02 8670.6904 14172.05
-2095.95 8705.6602 14209.53
-2088.46 8700.2002 14201.33
-2081.3401 8692.5596 14185.42
-2073.99 8691.29 14183.73
-2064.71 8681.9004 14167.33
-2058.49 8685.3203 14173.34
-2051.1799 8680.4902 14164.72
-2098.73 8717.21 14205.7
-2089.51 8704.5801 14185.84
-2084.03 8707.4697 14186.77
-2075.79 8698.8203 14173.42
-2068.02 8695.7998 14167.42
-2061.5901 8698.4004 14172.08
-2054.8401 8695.9502 14167.35
-2103.02 8735.0303 14212.1
-2092.28 8716.0996 14182.02
-2084.47 8709.3203 14165.69
-2079.0901 8712.6797 14173.41
-2072.4099 8714.2695 14173.41
-2063.9099 8708.2002 14163.95
-2056.97 8704.9697 14157.96
-2043.2 8698.8496 14151.06
-2112.3501 8744.2998 14208.68
-2102.1299 8731.3301 14181.97
-2094.01 8727 14176.84
-2089.49 8730.2998 14177.25
-2082.76 8728.04 14174.31
-2074.95 8724.96 14168.23
-2067.01 8721.2803 14162.67
-2059.49 8715.6504 14152.79
-2104.72 8742.0703 14176.86
-2092.4399 8742.6104 14174.67
-2085.8799 8741.1299 14173
-2078.6299 8740.4502 14170.82
-2070.29 8735.1396 14162.64
-2062.96 8730.3496 14154.12
-2116.73 8762.4199 14191.42
-2107.1001 8751.9805 14170.39
-2100.6499 8754.6699 14175.14
-2096.1399 8758.0996 14177.24
-2089.5801 8756.6201 14175.57
-2080.6201 8748.79 14161.82
-2071.25 8742.9004 14152.38
-2065.49 8741.0303 14148.93
-2130.22 8788.7197 14211.06
-2118.1599 8768.3701 14178.52
-2111.97 8772.2197 14180.62
-2103.97 8768.54 14175.07
-2098.7 8768.79 14172.02
-2092.1299 8767.3096 14170.36
-2083.0801 8762.8701 14161.76
-2074.8701 8758.21 14153.17
-2068.95 8755.6797 14150.15
-2062.05 8752.7305 14147.65
-2138.4399 8796.8496 14208.48
-2130.3101 8789.0898 14189.13
-2121.51 8782.2402 14178.44
-2114.9399 8784.5303 14178.01
-2107.1201 8781.6396 14173.73
-2101.4299 8780.2002 14166.45
-2094.02 8778.9902 14166.4
-2085.4299 8772.7695 14155.28
-2076.6499 8765.71 14142.81
-2071.96 8772.1504 14153.97
-2141.98 8811.4102 14207.93
-2131.9299 8795.8096 14177.48
-2124.49 8794.5498 14175.82
-2115.71 8791.4502 14166.37
-2109.6799 8792.3301 14168.5
-2104.9399 8794.8604 14167.63
-2098.0701 8795.9404 14169.76
-2088.1299 8784.1104 14149.63
-2081.26 8785.1797 14151.76
-2151.1499 8827.0195 14209.55
-2143.4199 8817.3604 14195.01
-2135.1101 8808.9102 14176.11
-2126.3899 8806.1104 14170.14
-2120.3701 8810.8096 14173.58
-2112.8 8805.2998 14165.43
-2107.7 8806.3896 14163.74
-2100.6299 8806.6797 14164.6
-2084.1799 8797.4902 14149.14
-2153.76 8837.7305 14204.28
-2144.6599 8822.4502 14180.73
-2138.02 8824.6299 14178.6
-2131.0901 8825.6104 14179.03
-2122.9399 8821.5 14168.32
-2117.0801 8823.1699 14171.72
-2109.8701 8815.46 14155.87
-2102.03 8812.5498 14151.61
-2095.1101 8813.5 14152.04
-2155.01 8842.8799 14190.08
-2147.8501 8835.5596 14179.33
-2140.3899 8834.4102 14170.37
-2133.3 8834.7305 14171.24
-2126.8701 8837.8096 14172.07
-2118.6899 8829.8799 14160.06
-2114.9299 8836.5898 14167.37
-2105.3501 8826.4902 14151.57
-2098.04 8825.8096 14149.4
-2157.3799 8852.6104 14181.75
-2151.03 8848.6602 14177.93
-2144.3401 8850.7197 14174.09
-2136.6499 8848.6201 14171.09
-2129.6399 8849.3398 14168.13
-2122.04 8843.8203 14160
-2116.5 8843.1602 14154
-2108.48 8839.5898 14150.17
-2178.51 8880.0596 14208.58
-2168.24 8867.5801 14188.93
-2159.4099 8860.9404 14172.67
-2152.3601 8857.8604 14168.41
-2147.52 8863.8301 14172.67
-2140.01 8862.5195 14170.94
-2133.76 8866.4502 14173.11
-2124.02 8852.0898 14150.85
-2117.8201 8852.4102 14146.11
-2111.95 8854.1396 14149.59
-2170.26 8875.8496 14179.76
-2163.3899 8877.2598 14176.36
-2156.3301 8874.1699 14172.11
-2150.8899 8877.7305 14172.5
-2142.3701 8872.29 14162.68
-2134.76 8870.5898 14155.85
-2127.9099 8868.2803 14152.86
-2121.9199 8869.5703 14151.16
-2183.77 8901.5303 14198.02
-2174.46 8893.0195 14184.78
-2167.1799 8892.7998 14178.78
-2159.71 8888.0801 14171.93
-2154.6499 8893.2695 14174.91
-2147.0901 8891.8398 14171.49
-2137.9099 8883.7002 14154.41
-2129.6201 8879.1699 14147.56
-2123.8999 8877.8301 14142
-2196.1299 8922.3096 14208.43
-2185.1799 8907.25 14183.26
-2176.29 8900.5 14174.33
-2169.78 8903.4902 14173.45
-2163.8799 8905.2598 14176.94
-2156.4299 8900.6201 14162.77
-2148.51 8897.7305 14158.53
-2140.6699 8895.1797 14150.36
-2132.76 8892.2803 14146.12
-2198.1799 8930.6504 14199.3
-2189.3799 8924.3799 14188.16
-2178.6399 8913.8301 14172.86
-2173.3301 8918.0596 14172.8
-2166.8701 8917.54 14174.12
-2159.8 8914.5303 14162.56
-2151.6799 8910.8398 14157.06
-2143.6399 8907.5 14147.64
-2137.0701 8910.25 14152.38
-2191.02 8931.0596 14176.43
-2181.46 8925.3799 14168.85
-2176.1499 8929.5996 14168.8
-2169.48 8928.2998 14168.85
-2163.1899 8928.4902 14162.42
-2153.6699 8919.0996 14147.87
-2146.79 8920.6104 14146.17
-2200.3799 8939.5801 14189.64
-2194.8401 8946.6201 14178.79
-2185.22 8940.7305 14169.44
-2179.73 8944.3096 14169.82
-2173.4099 8944.4502 14170.7
-2165.78 8939.1797 14157.07
-2157.23 8933.8496 14148.98
-2210.1599 8953.4004 14188.59
-2202.22 8947.0498 14179.16
-2197.8601 8958.96 14176.02
-2189.4099 8957.9004 14174.29
-2181.28 8954.4199 14163.19
-2175.6201 8953.5703 14162.81
-2167.5801 8946.6299 14146.6
-2222.6899 8981.9404 14210.48
-2211.75 8963.5098 14181.96
-2209.6899 8977.3896 14182.57
-2201.05 8971.9502 14172.79
-2192.23 8969.4404 14170.26
-2184.48 8967.5596 14161.66
-2179.4099 8969.1396 14165.15
-2172.3301 8966.2402 14155.3
-2214.99 8976.6396 14180.42
-2211.52 8984.8496 14172.07
-2204.0801 8984.2998 14169.99
-2195.6399 8983.3701 14169.98
-2188.4399 8983.79 14163.54
-2180.24 8972.5498 14148.29
-2174.6201 8979.4404 14152.07
-2237.03 9010.2402 14210.25
-2225.95 8995.0996 14185.16
-2219.1299 8993.4199 14172.73
-2206.8301 8999.25 14170.95
-2198.6499 8995.71 14167.18
-2191.4399 8996.1299 14160.74
-2185 8992.1699 14156.96
-2177.2 8990.1299 14146.68
-2238.49 9016.1201 14197.22
-2228.2 9004.2002 14177.24
-2221.03 9001.1299 14173.03
-2215.9099 9002.6797 14176.43
-2210.46 9014.0303 14171.98
-2201.04 9005.46 14158.82
-2192.6599 9001.1201 14146.38
-2186.77 8999.4697 14144.76
-2240.1399 9022.7803 14185.43
-2230.8401 9014.8896 14171.82
-2223.47 9011.0195 14166.36
-2217.29 9012.0098 14168.5
-2213.28 9025.5195 14167.81
-2205.4299 9023.4502 14164.86
-2197.46 9020.8096 14155.1
-2243.3999 9035.9199 14183.84
-2234.5 9029.6797 14172.84
-2228.1201 9029.8604 14173.73
-2223.0601 9035.46 14172.75
-2216.0601 9036.8799 14161.93
-2206.6599 9028.4902 14150.57
-2199.0701 9027.4404 14143.33
-2253.7 9047.7305 14178.39
-2245.4199 9044.0195 14172.85
-2239.1699 9048.5303 14180.18
-2230.76 9040.5596 14168.28
-2228.5901 9057.9404 14173.92
-2220.1001 9053.3301 14165.52
-2257.79 9064.1299 14181.87
-2249.8999 9062.0801 14178.93
-2241.3701 9057.4297 14170.44
-2235.1699 9058.4199 14172.58
-2230.4399 9065.4297 14163.45
-2221.71 9059.9102 14153.63
-2270.4399 9085.1797 14193.82
-2260.21 9073.8301 14173.37
-2251.9399 9070.3096 14169.62
-2245.23 9073.04 14172.66
-2237.6101 9068.3203 14165.87
-2224.73 9072.25 14150.76
-2215.99 9070.3799 14147.82
-2280.6499 9100.0703 14197.26
-2271.26 9088.5 14176.82
-2263.48 9086.9697 14171.73
-2256.02 9086.7305 14173.08
-2248.29 9085.4004 14169.76
-2241.8701 9085.5898 14170.66
-2234.03 9080.04 14162.63
-2228.1699 9086.25 14150.46
-2219.4099 9084.3896 14147.52
-2251.3401 9097.7002 14166.78
-2243.29 9091.3496 14157.51
-2238.48 9098.1504 14146.59
-2231.55 9100.0596 14148.37
0 0 0 1 0 0 0 1 0 0 0 1 0 0 0 0 0 265 1 0 0
