ply
format ascii 1.0
comment PCL generated
element vertex 507
property float x
property float y
property float z
element camera 1
property float view_px
property float view_py
property float view_pz
property float x_axisx
property float x_axisy
property float x_axisz
property float y_axisx
property float y_axisy
property float y_axisz
property float z_axisx
property float z_axisy
property float z_axisz
property float focal
property float scalex
property float scaley
property float centerx
property float centery
property int viewportx
property int viewporty
property float k1
property float k2
end_header
-1737.63 9401.5 13777.35
-1730.5699 9403.6504 13784.2
-1723.24 9409.4004 13790.44
-1716.5601 9413.6699 13797.6
-1709.77 9417.3799 13799.69
-1729.97 9400.3496 13756.82
-1722.99 9408.0303 13767.3
-1716.4301 9412.9697 13774
-1709.83 9417.71 13779.01
-1704.79 9420.8096 13784.94
-1697.33 9420.8203 13785.86
-1690.14 9422.3301 13781.93
-1682.83 9428.2998 13789.95
-1730.17 9401.4805 13737.38
-1722.89 9407.4902 13745.4
-1716.1801 9411.5898 13750.86
-1710.04 9418.8604 13759.56
-1703.61 9414.2695 13754.24
-1696.92 9418.54 13761.4
-1690.05 9421.79 13760.02
-1682.42 9426.0195 13765.49
-1671.61 9433.4805 13774.73
-1663.74 9436.4102 13775.51
-1650.84 9442.6699 13783.98
-1645.61 9450.0996 13777.68
-1638.5601 9447.1201 13773.14
-1631.97 9452.1904 13781.53
-1624.54 9452.3799 13784.22
-1730.22 9401.7402 13716.73
-1723.84 9412.6797 13730.51
-1716.38 9412.7002 13731.43
-1708.84 9412.2695 13728.88
-1703.47 9413.5098 13730.66
-1696.67 9417.1602 13738.26
-1689.48 9418.6396 13734.35
-1682.02 9423.7803 13741.13
-1670.72 9428.46 13744.9
-1663.03 9432.4297 13748.59
-1650.4399 9440.3896 13759.51
-1644.5699 9444.1602 13746.54
-1638.75 9448.25 13753.69
-1631.28 9448.2002 13754.61
-1624.73 9453.5303 13764.77
-1618.39 9454.6104 13764.77
-1613.1 9456.3799 13771.62
-1607.2 9465.5898 13779.01
-1600.65 9465.5596 13781.63
-1593.26 9471.4902 13784.02
-1586.28 9468.9199 13777.32
-1581.48 9473.6797 13780.09
-1730.59 9403.7305 13698.61
-1723.73 9412.0898 13708.62
-1715.37 9412.2803 13709.54
-1703.98 9416.3496 13713.77
-1697.8 9423.4404 13726.37
-1690.15 9422.3896 13718.77
-1682.22 9424.8799 13721.69
-1670.61 9427.8203 13722.92
-1663.39 9434.4404 13730.47
-1650.8 9442.4199 13741.38
-1644.02 9440.9805 13720.86
-1638.76 9448.3203 13731.33
-1631.33 9448.4697 13733.94
-1624.78 9453.7998 13744.09
-1619.03 9458.3301 13749.09
-1613.84 9460.75 13755.48
-1607.25 9465.8799 13758.33
-1600.99 9467.5996 13763.48
-1592.73 9468.3398 13758.33
-1587.05 9473.5 13762.87
-1581.53 9473.96 13759.41
-1573.28 9474.9199 13761.64
-1567.08 9482.5703 13768.18
-1729.25 9401.5195 13674.2
-1723.45 9410.5703 13685.42
-1714 9404.7803 13677.66
-1703.71 9414.8301 13690.57
-1697.1899 9420.04 13699.02
-1690.5 9424.3203 13700.57
-1682.5699 9426.8701 13703.57
-1670.8101 9428.96 13703.57
-1662.97 9432.0898 13706.03
-1650.96 9443.3203 13720.25
-1644.0601 9441.21 13700.21
-1638.8101 9448.5498 13710.66
-1631.08 9447.0098 13710.81
-1625.09 9455.6104 13724.27
-1618.3 9454.0996 13720.5
-1613.01 9455.8701 13727.35
-1606.71 9462.7002 13732.65
-1600.6 9465.2803 13739.03
-1593.35 9472.04 13742.65
-1586.37 9469.4697 13735.96
-1580.8101 9475.2803 13740.04
-1573.04 9473.4404 13738.42
-1567.27 9483.7402 13748.81
-1736.5 9400.4199 13648.04
-1729.25 9401.5098 13651.87
-1723.65 9411.6699 13666.09
-1715.5699 9413.3496 13667.78
-1703.59 9414.1904 13668.7
-1696.91 9418.5098 13675.83
-1689.73 9420.04 13672.01
-1682 9423.6504 13677.91
-1670.85 9429.1904 13682.91
-1663.63 9435.8203 13690.45
-1650.85 9442.7002 13698.37
-1644.7 9444.8604 13684.55
-1638.1 9444.4697 13683.78
-1631.67 9450.4805 13693.46
-1624.38 9451.4805 13697.3
-1618.63 9456.0195 13702.3
-1613.78 9460.4102 13712.9
-1606.16 9459.4805 13706.99
-1600.03 9461.8799 13711.67
-1593.1 9470.5898 13719.52
-1586.99 9473.1504 13720.29
-1581.39 9478.7695 13722.68
-1574.23 9480.6299 13727.83
-1748.1 9392.6396 13616.5
-1735.89 9397.1396 13622.41
-1730.0699 9405.9697 13637.46
-1723.05 9408.4004 13640.46
-1715.13 9410.9902 13643.46
-1703.9399 9416.1396 13650.59
-1697.3 9425.7998 13665.26
-1690.38 9423.6602 13656.36
-1681.99 9423.6396 13655.58
-1670.74 9428.5303 13661.04
-1663.36 9434.2598 13667.26
-1650.59 9441.2002 13675.25
-1644.73 9445.0498 13663.9
-1637.84 9442.96 13660.67
-1632.16 9453.2695 13676.58
-1624.4301 9451.7305 13676.73
-1617.1801 9452.9805 13676.73
-1613.09 9456.3203 13686.01
-1606.49 9461.4404 13688.87
-1600.5 9464.6904 13694.78
-1592.7 9468.2002 13695.09
-1586.59 9470.7598 13695.86
-1580.99 9476.3799 13698.24
-1573.6899 9477.4004 13702.16
-1748.12 9392.7598 13595.88
-1736.5601 9400.7197 13606.78
-1730.26 9407.0098 13618.14
-1722.9301 9407.7002 13618.6
-1715.16 9411.1396 13622.83
-1703.9399 9416.0898 13628.27
-1695 9413.0195 13625.88
-1689.37 9423.1504 13634.49
-1682.02 9423.7998 13634.95
-1670.12 9425.04 13633.72
-1662.89 9431.6299 13641.17
-1656.99 9440.4697 13656.3
-1649.5601 9440.6904 13653.38
-1638.61 9447.4199 13646.25
-1632.04 9452.5996 13654.7
-1624.46 9451.9102 13656.08
-1617.8 9456.6104 13661.08
-1613.42 9458.2598 13667.9
-1606.63 9462.2695 13667.75
-1599.1899 9462.4199 13670.35
-1592.26 9465.5801 13668.98
-1586.11 9473.5098 13677.28
-1580.45 9473.1104 13672.59
-1747.78 9390.9102 13571.05
-1736.37 9399.71 13583.17
-1729.17 9401.0801 13588.77
-1721.53 9405.1699 13592.53
-1715.03 9410.4297 13600.97
-1703.33 9412.7598 13602.65
-1695.8 9417.4502 13611.47
-1688.92 9420.6797 13610.1
-1681.74 9422.2402 13611.86
-1671.67 9433.7803 13625.53
-1656.71 9438.9199 13633.2
-1643.99 9440.8301 13614.72
-1638.45 9446.5 13622.7
-1630.87 9445.8203 13624.08
-1624.63 9452.9199 13636.66
-1617.6801 9455.9199 13639.19
-1613.41 9458.2197 13645.57
-1606.66 9462.4502 13647.1
-1599.22 9462.5898 13649.71
-1592.15 9464.9004 13647.1
-1586.14 9473.6904 13656.62
-1581.05 9476.7305 13656.93
-1748.6 9395.3398 13556.74
-1736.71 9401.5498 13565.1
-1729.8199 9404.6396 13573.14
-1721.55 9405.2803 13571.91
-1714.73 9408.7695 13577.81
-1704.13 9417.1699 13588.25
-1696.25 9419.96 13592.93
-1688.79 9419.9404 13588.25
-1682.0699 9424.0498 13593.7
-1676.01 9426.7197 13594.54
-1669.72 9428.0498 13596.23
-1663.5601 9435.4004 13604.98
-1656.7 9438.8398 13610.89
-1643.5699 9438.3799 13590.42
-1638.02 9444 13598.31
-1631.64 9450.25 13609.67
-1624.76 9453.6904 13615.57
-1617.96 9457.54 13619.33
-1612.53 9458.5098 13624.93
-1605.63 9461.8799 13625.23
-1599.54 9464.4805 13631.6
-1592.61 9467.6396 13630.22
-1585.74 9471.2695 13632.29
-1754.6899 9387.9805 13527.4
-1747.16 9387.5703 13524.87
-1735.77 9396.46 13537.06
-1729.04 9400.4004 13546.32
-1721.73 9406.2598 13552.61
-1714.4 9406.9297 13553.07
-1708.12 9413.4102 13560.51
-1703.84 9415.5498 13565.19
-1695.17 9413.9805 13563.57
-1689.54 9424.1201 13572.16
-1682.4 9425.8896 13575.61
-1676.17 9427.6602 13575.15
-1669.27 9425.5303 13571.85
-1663.5699 9435.4902 13584.36
-1656.41 9437.1904 13587.73
-1649.28 9439.0898 13587.27
-1638.03 9444.0898 13577.69
-1631.62 9450.1396 13587.36
-1624.63 9452.9404 13593.71
-1617.6801 9455.9404 13596.24
-1612.6899 9459.4697 13605.52
-1605.0601 9458.5195 13599.62
-1598.83 9460.2803 13604.76
-1592.34 9466.0498 13607.14
-1755.5 9392.3203 13513.02
-1749.11 9398.04 13519.31
-1736.41 9399.9502 13521.45
-1730.13 9406.2998 13532.78
-1722.05 9408.0098 13534.46
-1715.35 9412.1504 13539.9
-1707.97 9412.6104 13538.68
-1702.8 9414.9199 13543.35
-1695.35 9414.9404 13544.27
-1689.5601 9424.2402 13551.64
-1682.99 9429.21 13558.3
-1675.84 9425.75 13550.33
-1670.36 9431.6699 13559.99
-1664.2 9439.0303 13568.73
-1656.27 9436.4102 13565.89
-1644.49 9443.6904 13556.62
-1638.2 9445.0596 13558.39
-1632.08 9452.8203 13570.5
-1623.9 9454.0801 13574.4
-1613.15 9462.1699 13588.66
-1605.49 9461.0098 13581.07
-1599.54 9464.4805 13588.66
-1592.35 9466.1396 13586.51
-1755.34 9391.4697 13491.21
-1748.78 9396.2803 13496.19
-1736.26 9399.1104 13499.64
-1729.49 9402.8604 13507.21
-1721.74 9406.3203 13511.42
-1715.52 9413.0801 13520.62
-1707.96 9412.5498 13506.99
-1703.28 9417.5703 13526.51
-1695.66 9416.6797 13526.13
-1689.4 9423.3701 13529.73
-1682.38 9425.7803 13532.72
-1676.15 9427.5498 13532.26
-1670.1801 9430.6504 13536.47
-1663.6 9435.6104 13543.14
-1656.74 9439.0703 13549.04
-1644.05 9441.1602 13532.34
-1638.5 9446.7998 13540.23
-1631.34 9448.54 13543.68
-1623.9 9454.1299 13553.79
-1611.83 9454.4297 13556.85
-1605.64 9461.9199 13561.67
-1600.29 9468.9297 13574.32
-1755.62 9393 13471.48
-1749.0601 9397.8096 13476.46
-1737.54 9406.04 13489.01
-1729.66 9403.7598 13487.93
-1722.34 9409.5801 13494.13
-1714.7 9408.6104 13482.66
-1707.8199 9411.7803 13496.27
-1702.77 9414.7402 13500.48
-1696.14 9419.3096 13509.29
-1688.95 9420.8203 13505.46
-1682.0699 9424.0898 13509.67
-1676.9301 9431.8896 13517.86
-1670.65 9433.29 13519.63
-1663.25 9433.6504 13518.32
-1656.45 9437.3896 13525.98
-1649.16 9438.3896 13524.22
-1638.96 9449.4404 13523.38
-1630.89 9451.3496 13526.82
-1623.46 9451.5303 13529.43
-1612.39 9457.7305 13539.54
-1605.49 9461.0195 13528.74
-1755.13 9390.3301 13447.16
-1747.92 9391.6797 13447.16
-1735.46 9399.8604 13458.03
-1730.13 9406.29 13471.02
-1722.17 9408.6904 13472.33
-1714.4 9406.9805 13470.72
-1708.45 9415.2402 13480.67
-1702.92 9415.5801 13481.13
-1696.09 9419.0801 13487.02
-1689.39 9423.2598 13477.46
-1681.6 9421.46 13485.34
-1670.49 9432.4199 13497.81
-1663.71 9436.2695 13501.48
-1656.6 9438.25 13506.61
-1644.47 9443.5596 13493.22
-1637.72 9447.6602 13498.66
-1630.89 9451.3496 13506.22
-1622.71 9447.2002 13502.63
-1612.54 9458.5898 13520.16
-1768.42 9381.75 13419.64
-1762.24 9383.5596 13419.19
-1747.5 9394.4004 13430.35
-1735.45 9399.8096 13437.45
-1729.3199 9401.9102 13444.26
-1722.01 9407.79 13450.53
-1714.99 9410.1797 13453.44
-1708.72 9416.7402 13460.93
-1702.89 9415.4297 13449.46
-1695.9301 9418.1904 13465.22
-1689.99 9426.6396 13471.34
-1680.83 9422.3301 13454.89
-1676 9431.8496 13475.09
-1669.71 9428 13470.95
-1663.5601 9435.3896 13479.67
-1656.7 9438.8701 13485.57
-1649.74 9441.6797 13486.41
-1638.17 9450.2695 13481.81
-1631 9451.96 13485.17
-1623.42 9451.29 13486.55
-1612.39 9457.7197 13498.34
-1769.0601 9385.1299 13404.05
-1763.6899 9391.2803 13409.78
-1755.1 9390.1797 13406.04
-1747.16 9392.5996 13407.34
-1735.4399 9399.7197 13416.89
-1729.9 9405.0898 13426.98
-1722.3101 9409.4297 13432.41
-1715.14 9411.0195 13434.17
-1708.08 9413.1904 13435.4
-1702.4399 9412.9004 13436.31
-1696.71 9422.5195 13450.92
-1689.2 9422.25 13444.57
-1681.11 9423.9199 13446.25
-1675.05 9426.54 13447.02
-1670.61 9433.0898 13446.78
-1662.77 9436.2402 13449.23
-1656.55 9437.96 13463.76
-1649.73 9441.6396 13465.83
-1636.95 9443.2305 13451.29
-1630.6899 9450.1904 13462.15
-1623.86 9453.8701 13469.72
-1613.26 9462.7803 13474.07
-1778.25 9399.2402 13404.13
-1769.36 9386.7197 13385.95
-1763.67 9391.1699 13389.24
-1754.26 9385.7197 13379.31
-1747.14 9392.4805 13386.79
-1735.4301 9399.6699 13396.42
-1729.89 9404.9902 13406.43
-1722.77 9411.96 13415.6
-1715.12 9410.9297 13413.61
-1707.9 9412.2402 13413.61
-1702.73 9414.5195 13418.2
-1696.0699 9418.96 13425.38
-1688.87 9420.3896 13421.48
-1681.5601 9426.46 13429.43
-1675.8199 9430.8496 13432.72
-1670.3101 9431.4102 13434.86
-1662.17 9432.8398 13434.86
-1655.02 9434.5596 13438.22
-1649.5601 9440.71 13444.03
-1637.6899 9447.5 13436.91
-1630.97 9451.8301 13444.01
-1624.59 9458.1504 13455.33
-1777.24 9393.9102 13376.18
-1767.78 9383.3203 13360.53
-1762.42 9389.4805 13366.25
-1755.34 9391.46 13365.8
-1748.08 9397.54 13373.66
-1735.4 9399.5303 13375.88
-1729.0601 9400.5098 13379.69
-1721.64 9405.7803 13386.42
-1714.04 9410.1104 13391.84
-1708.52 9415.6104 13398.03
-1703.3 9417.6699 13400.93
-1695.71 9416.9297 13391.22
-1689.17 9422.04 13403.45
-1681.23 9424.5801 13406.35
-1674.71 9424.6299 13403.45
-1670.5601 9432.79 13415.06
-1662.62 9435.3701 13418.04
-1655.46 9437.0898 13421.4
-1649.51 9440.4199 13412.3
-1637.0601 9443.8896 13411.38
-1630.0601 9446.5098 13416.04
-1623.83 9453.7002 13428.57
-1777.46 9400.04 13364.34
-1761.89 9386.6797 13341.98
-1755.14 9390.4297 13344.04
-1747.85 9396.29 13350.22
-1742.28 9401.4697 13358.62
-1736.62 9406.1299 13363.58
-1728.13 9400.5303 13359.16
-1721.73 9406.2598 13365.42
-1713.6899 9408.1904 13368.78
-1707.38 9409.3398 13368.78
-1702.96 9415.8096 13377.94
-1695.55 9416.0801 13380.54
-1688.99 9421.0498 13381.68
-1681.84 9428 13390.84
-1675.46 9428.8398 13389.08
-1670.7 9433.5801 13395.8
-1663.3199 9439.3799 13401.99
-1656.1801 9441.1797 13395.94
-1649.22 9438.71 13400.38
-1637.46 9446.1699 13392.88
-1630.34 9448.1602 13398
-1623.37 9451 13404.35
-1775.45 9389.3799 13328.93
-1762.63 9390.6104 13325.96
-1755.4301 9391.96 13325.96
-1747.16 9392.6104 13324.74
-1736.1 9403.3096 13339.31
-1729.0699 9405.6201 13346.1
-1721.7 9406.0801 13344.88
-1714.89 9414.7803 13356.48
-1708.26 9414.21 13354.04
-1703.25 9417.4297 13359.92
-1695.36 9420.21 13364.49
-1689.11 9421.75 13362.36
-1680.98 9423.2002 13362.36
-1675.75 9430.46 13371.05
-1670.21 9430.79 13371.51
-1662.83 9436.5898 13377.69
-1655.99 9440.0996 13383.57
-1649.2 9438.6299 13379.91
-1636.97 9443.3701 13368.59
-1630.3101 9448 13377.45
-1767.95 9384.2197 13299.72
-1761.77 9386.0303 13299.26
-1754.5 9391.9697 13305.52
-1747.12 9392.3896 13304.22
-1740.29 9395.7402 13308.41
-1736.0601 9403.1104 13318.78
-1729.15 9406.0498 13325.12
-1721.97 9407.5996 13326.79
-1715.03 9415.5098 13337.25
-1708.38 9414.8799 13334.73
-1701.95 9410.2402 13329.47
-1695.49 9420.9502 13345.26
-1689.67 9424.8301 13345.1
-1681.11 9423.9404 13343.12
-1675.52 9429.1904 13347.62
-1670.33 9431.4805 13352.19
-1661.88 9431.1904 13349.75
-1655.96 9439.9297 13363.03
-1649.6 9446.25 13368.82
-1637.25 9444.96 13350.57
-1763.05 9392.8496 13288.74
-1754.28 9390.8096 13283.71
-1747.5699 9394.79 13287.44
-1740.42 9396.4199 13289.2
-1735.37 9399.3701 13293.31
-1728.63 9403.2402 13300.94
-1723.0601 9413.5195 13314.96
-1714.35 9411.79 13311.76
-1707.71 9411.1602 13309.25
-1702.39 9412.6699 13312.68
-1695.3101 9419.8896 13323.5
-1689.2 9427.4297 13328.3
-1680.6 9421.0801 13318.85
-1675.79 9430.71 13329.52
-1669.98 9429.5498 13329.22
-1662 9431.8496 13330.44
-1655.3199 9436.2998 13337.6
-1647.88 9436.4199 13334.63
-1637.36 9445.6201 13331.25
-1720.51 9404.71 13282.1
-1713.98 9409.7695 13288.73
-1707.67 9410.9199 13288.73
-1702.62 9413.9199 13292.92
-1695.74 9422.2998 13306.71
-1688.22 9421.9697 13300.39
-1681.03 9423.4902 13302.07
-1675.45 9428.7598 13306.56
-1669.4399 9426.4502 13303.29
-1663.36 9439.5801 13321.1
-1655.58 9437.8096 13319.51
-1649.23 9444.1299 13325.3
-1643.62 9444.0801 13318.52
-1680.99 9423.25 13281.54
-1675.4 9428.5 13286.04
-1669.89 9434.3096 13293.96
-1662.66 9435.5898 13293.96
-1655.54 9437.5596 13298.99
-1649.03 9442.9697 13303.48
0 0 0 1 0 0 0 1 0 0 0 1 0 0 0 0 0 507 1 0 0
