ply
format ascii 1.0
comment PCL generated
element vertex 199
property float x
property float y
property float z
element camera 1
property float view_px
property float view_py
property float view_pz
property float x_axisx
property float x_axisy
property float x_axisz
property float y_axisx
property float y_axisy
property float y_axisz
property float z_axisx
property float z_axisy
property float z_axisz
property float focal
property float scalex
property float scaley
property float centerx
property float centery
property int viewportx
property int viewporty
property float k1
property float k2
end_header
-2754.6399 10073.02 14212.28
-2743.7 10063.36 14198.53
-2758.23 10086.16 14207.97
-2747.5701 10077.55 14197.15
-2769.3799 10096.46 14209.78
-2761.1599 10096.87 14201.66
-2748.1201 10079.55 14178.61
-2763.6201 10105.86 14192.92
-2751.27 10091.11 14173.51
-2746.3101 10095.78 14175
-2739.46 10097.36 14173.21
-2765.0901 10115.04 14184.1
-2756.52 10110.37 14177.79
-2748.48 10107.59 14169.88
-2782.71 10145.08 14212.47
-2767.54 10124.02 14175.35
-2759.2 10120.2 14170.25
-2751.6399 10119.2 14164.84
-2745.97 10125.21 14169.24
-2782.99 10149.91 14197.51
-2773.28 10145.02 14181.99
-2764.98 10141.4 14178.61
-2758.3601 10143.91 14178.1
-2749.3601 10137.68 14165.39
-2740.8701 10137.14 14161.69
-2785.2 10157.97 14187.45
-2775.97 10154.85 14174.43
-2767.6599 10151.23 14171.04
-2761.75 10156.39 14174.23
-2754.3899 10156.25 14170.04
-2744.9399 10152.2 14161.45
-2801.5601 10183.19 14200.42
-2788.8701 10171.37 14184.85
-2779.1499 10166.46 14169.34
-2772.74 10169.87 14175.75
-2765.0701 10168.61 14168.56
-2757.24 10166.74 14161.96
-2747.1299 10160.3 14151.47
-2737.79 10156.66 14146.3
-2804.03 10192.17 14191.62
-2792.71 10185.38 14181.65
-2783.5 10182.4 14170.26
-2776.5601 10183.87 14172.56
-2769.4199 10184.6 14169.57
-2760.1399 10177.43 14155.58
-2750.97 10174.5 14150
-2815.5701 10211.14 14200.39
-2805.21 10200.28 14179.82
-2795.6499 10196.07 14175.25
-2788.8401 10201.91 14176.13
-2779.24 10193.7 14164.96
-2773.3 10198.87 14168.14
-2763.76 10190.77 14152.89
-2756.01 10193.15 14154.68
-2817.8101 10219.25 14190.37
-2809.3799 10215.41 14179.58
-2800.51 10213.81 14178.62
-2791.47 10211.53 14166.82
-2784.0801 10211.43 14168.34
-2775 10205.12 14155.57
-2767.6201 10205.04 14151.46
-2757.1699 10197.45 14138
-2819.97 10227.08 14178.55
-2813.05 10228.76 14176.84
-2804.4099 10228.02 14177.09
-2797.77 10234.59 14177.53
-2786.74 10225.05 14165.61
-2780.8 10226.44 14163.9
-2771.71 10220.12 14151.14
-2823.4099 10239.57 14174.6
-2816.72 10242.12 14174.09
-2808.0701 10241.38 14174.34
-2800.22 10243.55 14168.7
-2791.5701 10242.8 14168.95
-2781.73 10229.86 14146
-2836.3999 10259.81 14184
-2828.3 10257.32 14177.92
-2821.6001 10259.87 14177.41
-2812.6399 10258.06 14174.75
-2804.6001 10259.57 14169.62
-2792.8101 10247.36 14154.04
-2786.3201 10246.74 14148.14
-2775.53 10234.2 14126.83
-2840.1001 10273.17 14181.22
-2831.51 10268.94 14172.74
-2824.54 10270.56 14170.95
-2815.8301 10269.68 14169.58
-2808.49 10273.8 14168.04
-2796.3999 10260.5 14149.56
-2789.71 10259.22 14144.18
-2855.4199 10297.85 14192.78
-2844.77 10290.07 14183.3
-2837.3799 10290.24 14180.9
-2828.8899 10286.38 14170.13
-2820.7 10287.46 14172.85
-2809.48 10277.42 14151.83
-2801.73 10280.06 14155.33
-2857.9099 10306.81 14183.9
-2848.23 10302.58 14179.28
-2839.8401 10303.02 14176.89
-2832.5701 10299.74 14167.33
-2822.6699 10294.61 14161.51
-2814.28 10294.97 14153.4
-2805.6101 10294.3 14153.73
-2873.71 10333.02 14201.74
-2852.1799 10316.87 14177.74
-2842.97 10314.37 14169.88
-2836.48 10313.99 14165.7
-2827.3 10311.52 14163.57
-2818.1699 10309.2 14151.79
-2809.01 10306.79 14149.72
-2875.95 10341.07 14191.54
-2865.3201 10333.56 14178.22
-2856.78 10333.52 14177.98
-2847.6299 10331.28 14171.92
-2841.6299 10332.7 14170.2
-2831.6399 10327.34 14162.7
-2823.29 10327.93 14156.29
-2879.4299 10353.57 14187.49
-2869.03 10346.93 14175.37
-2860.73 10347.82 14176.4
-2853.28 10351.75 14178.79
-2845.0701 10345.2 14166.16
-2833.8401 10335.36 14152.52
-2826.4199 10343.32 14155.84
-2884.0701 10370.28 14187.77
-2873.1599 10361.83 14173.19
-2865.1499 10363.81 14177.13
-2855 10358.03 14166.21
-2849.1699 10360.11 14163.98
-2838.24 10351.4 14153.34
-2885.3301 10378.63 14177.63
-2878.3601 10380.57 14177.63
-2867.1399 10374.84 14170.67
-2860.1699 10376.77 14170.67
-2852.6101 10372.6 14159.92
-2841.8799 10368.61 14155.33
-2897.4399 10387.46 14191.69
-2901.1699 10400.85 14188.79
-2889.05 10392.01 14174.74
-2882.3101 10394.83 14175.93
-2872.0601 10392.65 14173.83
-2864.04 10390.8 14167.26
-2856.28 10385.98 14157.03
-2844.0901 10376.67 14145.21
-2919.9199 10417.84 14212.7
-2909.8201 10408.7 14200.36
-2904.3999 10412.42 14183.4
-2893.76 10408.95 14176.68
-2885.78 10407.33 14171.83
-2876 10406.91 14172.12
-2866.24 10398.81 14157.04
-2858.98 10395.79 14149.29
-2925.4199 10437.5 14218.27
-2914.3201 10424.79 14179.96
-2908.0701 10425.59 14178.76
-2898.72 10426.78 14179.8
-2889.73 10421.59 14170.11
-2879.8899 10420.96 14168.68
-2925.9399 10439.33 14199.58
-2918.0601 10442.02 14181.86
-2912.8 10442.54 14180.67
-2901.8701 10438.13 14172.69
-2893.4399 10438.82 14172.02
-2883.3401 10433.46 14164.56
-2874.1201 10427.38 14153.67
-2928.4299 10448.23 14190.51
-2922.0601 10456.35 14180.18
-2915.78 10453.24 14174.06
-2905.8601 10452.46 14171.01
-2897.0901 10451.99 14167.36
-2888.53 10452.24 14168.92
-2932.8799 10464.09 14189.49
-2920.52 10470.2 14175.94
-2910.8201 10470.3 14174.08
-2900.3 10463.56 14161.94
-2889.75 10456.66 14153.82
-2882.73 10458.6 14153.82
-2935.6299 10473.91 14181.67
-2926.72 10473.03 14180.26
-2924.25 10487.45 14177.8
-2914.54 10483.7 14171.1
-2904.52 10478.77 14161.42
-2939.1399 10486.42 14177.5
-2930.47 10486.42 14177.27
-2926.99 10497.27 14169.96
-2919.2 10500.45 14171.23
-2906.49 10485.88 14149.96
-2898.5801 10488.61 14153.46
-2952.96 10504.72 14184.17
-2944.3899 10505.16 14181.71
-2938.97 10516.86 14176.18
-2931.6599 10514.02 14170.08
-2921.4199 10508.44 14160.94
-2910.95 10501.97 14150.61
-2903.02 10504.65 14154.03
-2947.5901 10516.57 14174.61
-2925.3899 10522.72 14159.11
-2915.0801 10516.9 14148.26
0 0 0 1 0 0 0 1 0 0 0 1 0 0 0 0 0 199 1 0 0
