ply
format ascii 1.0
comment PCL generated
element vertex 118
property float x
property float y
property float z
element camera 1
property float view_px
property float view_py
property float view_pz
property float x_axisx
property float x_axisy
property float x_axisz
property float y_axisx
property float y_axisy
property float y_axisz
property float z_axisx
property float z_axisy
property float z_axisz
property float focal
property float scalex
property float scaley
property float centerx
property float centery
property int viewportx
property int viewporty
property float k1
property float k2
end_header
-3324.6699 11349.37 14214.49
-3315.3301 11353.81 14215.08
-3306.3501 11355.43 14213.92
-3320.3101 11370.85 14214.22
-3311.3899 11372.74 14214.79
-3304.8501 11378.71 14219.47
-3334.8 11383.98 14216.2
-3323.4399 11381.58 14206.85
-3315.6101 11387.23 14212.1
-3308.1599 11390.1 14211.53
-3347.8201 11396.02 14209.49
-3339.3401 11399.45 14214.73
-3329.05 11400.8 14210.06
-3319.21 11399.6 14205.38
-3314.8401 11413.09 14219.42
-3257.25 11435.57 14220.67
-3345.7 11421.18 14219.65
-3337.6699 11430.32 14226.05
-3325.0801 11419.75 14209.72
-3319.3201 11428.52 14217.85
-3312.3401 11429.07 14223.07
-3304.3799 11442.6 14235.96
-3294.51 11437.24 14212.69
-3286.0801 11440.95 14233.56
-3277.22 11443.21 14213.84
-3271.1899 11447 14216.22
-3260.5801 11447.25 14214.42
-3250.73 11445.98 14209.74
-3236.5801 11458.84 14218.52
-3192.53 11462.35 14209.74
-3338.8999 11434.53 14210.52
-3330.6699 11438.94 14212.81
-3321.6201 11440.56 14211.67
-3314.6201 11441.06 14216.81
-3304.23 11442.06 14214.51
-3285.3701 11438.5 14209.74
-3263.6201 11462.09 14211.68
-3256.2 11465.26 14212.9
-3244.1101 11456.12 14215.08
-3240.6899 11473.37 14215.78
-3227.8201 11461.43 14214.51
-3218.3101 11461.33 14212.7
-3208.72 11460.95 14209.17
-3196.8601 11477.88 14208.23
-3188.9199 11483.45 14213.47
-3180.3701 11486.82 14214.62
-3170.6599 11486.02 14213.39
-3155.7 11491.92 14214.05
-3137.72 11495.48 14211.1
-3126.74 11489.93 14204.04
-3369.5601 11445.66 14214.16
-3351.99 11442.64 14204.82
-3335.1799 11454.42 14211.29
-3326.1001 11455.99 14210.07
-3316.1101 11446.18 14202.42
-3309.77 11461.27 14217.59
-3299.6899 11455.25 14212.91
-3290.6399 11456.85 14211.76
-3281.8501 11459.37 14211.76
-3274.45 11458.41 14208.23
-3268.75 11480.11 14211.87
-3260.8601 11481.65 14212.45
-3247.6899 11468.74 14209.96
-3244.01 11485.12 14209.58
-3230.05 11469.35 14203.57
-3221.6101 11473.09 14206.51
-3213.8601 11479.33 14211.19
-3202.1399 11496.87 14209.58
-3191.5601 11492.96 14203.1
-3184.3201 11501.11 14210.15
-3173.6499 11496.86 14206.05
-3162.1201 11489.44 14214.62
-3159.8799 11507.14 14210.72
-3149.55 11504.08 14209.49
-3141.1899 11508.19 14206.05
-3131.48 11507.36 14204.82
-3126.3301 11514.59 14210.15
-3119.28 11519.21 14211.87
-3108.9099 11520.31 14211.29
-3304.4299 11471.67 14212.53
-3295.3401 11473.22 14211.3
-3287.0901 11477.66 14213.67
-3279.9399 11477.63 14211.3
-3274.79 11501.33 14217.37
-3266.0701 11500.02 14214.42
-3253.4099 11488.96 14214.25
-3249.72 11505.36 14213.85
-3236.27 11491.44 14210.16
-3227.01 11492.33 14209.58
-3218.2 11494.8 14209.58
-3206.2 11511.42 14206.81
-3196.6699 11511.36 14205.08
-3188.0901 11514.73 14206.23
-3178.1899 11513.28 14205.58
-3165.6001 11502.08 14209.49
-3164.4099 11523.63 14210.33
-3153.54 11518.66 14206.72
-3146.98 11529.4 14211.48
-3137 11527.64 14209.1
-3128.3999 11526.61 14203.86
-3122.73 11531.93 14206.81
-3112.0801 11532.03 14205.01
-3291.25 11492.18 14210.9
-3257.55 11503.56 14211.55
-3240.3899 11506.04 14207.46
-3230.76 11505.67 14203.94
-3222.47 11510.07 14206.31
-3184.0601 11534.55 14211.06
-3169.6299 11516.71 14206.8
-3169.1899 11541.06 14211.06
-3159.3701 11539.94 14212.2
-3141.49 11544.14 14208.69
-3134.6899 11549.77 14211.64
-3126.5901 11550.6 14208.69
-3117.48 11552.06 14207.55
-3173.8201 11531.93 14203.45
-3145.73 11559.74 14207.11
-3138.3201 11563.15 14205.97
0 0 0 1 0 0 0 1 0 0 0 1 0 0 0 0 0 118 1 0 0
