ply
format ascii 1.0
comment PCL generated
element vertex 142
property float x
property float y
property float z
element camera 1
property float view_px
property float view_py
property float view_pz
property float x_axisx
property float x_axisy
property float x_axisz
property float y_axisx
property float y_axisy
property float y_axisz
property float z_axisx
property float z_axisy
property float z_axisz
property float focal
property float scalex
property float scaley
property float centerx
property float centery
property int viewportx
property int viewporty
property float k1
property float k2
end_header
-2691.79 10062.78 14205.03
-2692.28 10064.61 14184.79
-2685.0701 10068.59 14194.62
-2675.75 10068.53 14192.7
-2664.6499 10077.32 14190.41
-2607.28 10107.01 14202.67
-2593.26 10108.72 14200.17
-2585.74 10111.63 14201.46
-2576.28 10110.97 14201.66
-2695.1399 10075.32 14178.5
-2686.54 10074.1 14181
-2677.2 10073.98 14179.01
-2665.5701 10080.8 14183.92
-2657.55 10081.78 14181
-2649.2 10085.39 14185.71
-2642.1499 10090.05 14183.71
-2629.1699 10091.76 14182.92
-2620.5801 10094.49 14186.42
-2607.1201 10106.39 14180.42
-2598.6499 10101.56 14191.13
-2594 10111.6 14182.83
-2586.48 10114.51 14184.12
-2577.6399 10116.29 14186.32
-2569.29 10111.88 14183.41
-2564.0601 10119.74 14192.03
-2556.6699 10123.24 14198.45
-2548.8799 10129.14 14199.36
-2540.77 10129.77 14200.37
-2534.51 10133.66 14200.57
-2492.8301 10152.89 14203.77
-2484.51 10152.63 14203.56
-2688.23 10080.45 14168.59
-2680.51 10086.47 14175.21
-2667.02 10086.3 14170.3
-2658.96 10091.03 14172.3
-2651.1001 10092.62 14174.5
-2644.04 10097.28 14172.5
-2631.0601 10099.05 14171.79
-2622.23 10100.86 14174
-2615.1001 10105.25 14175.92
-2602.5901 10116.89 14169.91
-2601.6499 10113.21 14174.7
-2579.26 10122.67 14173.9
-2565.8401 10126.79 14179.11
-2556.95 10124.33 14178.62
-2541.45 10132.45 14181.32
-2535.23 10136.54 14183.23
-2528.71 10139.37 14186.23
-2514.1899 10147.41 14196.35
-2506.46 10149.54 14198.06
-2498.6699 10147.24 14195.36
-2485.8501 10158.1 14189.84
-2476.97 10159.79 14192.05
-2471.1201 10165.42 14194.75
-2463.98 10165.75 14195.76
-2458.3301 10172.25 14199.66
-2671.25 10102.29 14171.41
-2661.78 10101.75 14166
-2653.46 10101.61 14165.79
-2647.3201 10109.78 14168.69
-2640.53 10111.55 14168.69
-2633.5701 10112.66 14169.2
-2625.48 10113.36 14170.2
-2616.9199 10116.28 14169.7
-2610.8101 10120.67 14167.69
-2597.8899 10126.75 14171.31
-2599.0701 10131.36 14167.8
-2589.6001 10130.77 14173.81
-2582.45 10135.19 14170.09
-2573.55 10132.75 14169.6
-2567.8899 10134.88 14169.1
-2559.8899 10136 14173.6
-2552.3101 10142.77 14175.72
-2530.52 10146.61 14175.01
-2522.95 10149.41 14176.22
-2514.8999 10150.28 14179.01
-2506.51 10149.76 14177.02
-2500.45 10154.5 14184.14
-2494.1899 10158.41 14178.72
-2487.21 10163.63 14176.21
-2477.8999 10163.58 14176
-2471.3999 10166.57 14175
-2465.74 10173.02 14184.53
-2458.8201 10174.26 14181.11
-2451.27 10177.21 14184.03
-2655.3 10108.61 14152.87
-2649.6499 10118.71 14159.89
-2641.95 10116.98 14154.98
-2636.3701 10123.38 14162.89
-2627.5701 10121.44 14160.19
-2619.6899 10127 14163.39
-2612.1699 10125.94 14163.68
-2601.1599 10139.5 14157.86
-2592.1201 10140.61 14154.87
-2591.1699 10136.91 14171
-2584.29 10142.41 14158.87
-2576.45 10144.14 14162.79
-2570.8501 10146.54 14164.07
-2563.04 10148.47 14169.7
-2533.8601 10160.01 14172.4
-2526.0701 10161.95 14172.4
-2515.72 10157.77 14167.79
-2508.5801 10162.34 14171.49
-2502.03 10160.9 14171.7
-2498.1799 10174.67 14170.08
-2474.23 10178.2 14169.88
-2467.51 10180.33 14173.38
-2460.5701 10181.51 14169.88
-2452.8101 10183.6 14171.59
-2638.24 10130.58 14151.66
-2630.3 10131.95 14152.17
-2621.1101 10132.49 14149.75
-2607.3999 10135.56 14151.95
-2587.24 10154 14153.75
-2573.79 10158.14 14158.96
-2563.99 10152.23 14153.65
-2549.3201 10163.83 14161.17
-2536.3301 10169.9 14164.86
-2528.47 10171.63 14163.16
-2519.8601 10174.49 14168.36
-2511.24 10173.1 14165.17
-2505.1699 10177.87 14172.28
-2492.4199 10184.95 14161.84
-2483.96 10188.43 14166.55
-2476.51 10191.86 14167.25
-2470.0701 10190.89 14165.34
-2464.6201 10198.26 14170.45
-2455.4199 10194.43 14165.34
-2447.1899 10198.94 14167.25
-2440.6699 10201.92 14171.96
-2520.5601 10177.32 14151.02
-2512.8101 10179.46 14152.73
-2506.52 10183.36 14158.63
-2502.77 10193.37 14152.09
-2478.22 10198.89 14154.3
-2472.04 10198.99 14155.31
-2465.95 10203.76 14156.79
-2457.24 10206.3 14160.21
-2449.52 10208.64 14158
-2442.5601 10209.83 14160.21
-2436.4299 10210.15 14157.3
-2439.4199 10222.66 14153.36
0 0 0 1 0 0 0 1 0 0 0 1 0 0 0 0 0 142 1 0 0
