ply
format ascii 1.0
comment PCL generated
element vertex 300
property float x
property float y
property float z
element camera 1
property float view_px
property float view_py
property float view_pz
property float x_axisx
property float x_axisy
property float x_axisz
property float y_axisx
property float y_axisy
property float y_axisz
property float z_axisx
property float z_axisy
property float z_axisz
property float focal
property float scalex
property float scaley
property float centerx
property float centery
property int viewportx
property int viewporty
property float k1
property float k2
end_header
1032.8 5075.6699 14171.16
1040 5073.73 14197.3
1034.73 5085.1499 14166.02
1038.8101 5085.2402 14170.59
1041.91 5080.5601 14185.03
1045.1801 5079.2002 14185.28
1053.89 5084.4502 14174.66
1037.5601 5096.5898 14166.6
1040.53 5093.6699 14162.53
1043.54 5088.5 14175.57
1049.98 5087.7002 14176.97
1055.74 5093.3799 14168.01
1059.9301 5093.96 14173.99
1063.11 5092.0801 14172.83
1073.92 5090.1699 14190.59
1042.67 5104.1499 14160.2
1045.16 5096.4199 14166.1
1048.23 5094.0098 14163.44
1051.9399 5097.1699 14171.83
1057.8101 5103.3501 14164.27
1065.08 5101.54 14167.67
1068.2 5099.3501 14169.83
1071.98 5097.9302 14176.55
1075.7 5098.6001 14182.53
1087.58 5101.6299 14180.53
1045.3 5114.5298 14157.86
1051.13 5105.5898 14162.36
1054.49 5107.0498 14168.08
1060.41 5115.8999 14167.65
1063.79 5112.5098 14160.52
1067.87 5112.4302 14166.74
1070.39 5109.8301 14167.49
1073.54 5105.3301 14165.67
1082.74 5110.1602 14164.83
1087.21 5111.8999 14171.96
1089.46 5108.0298 14165.08
1093.98 5110.0098 14177.03
1098.1801 5110.48 14176.53
1101.89 5108.6699 14180.09
1106.4 5110.5498 14185.56
1049.0699 5115.48 14154.04
1053.5 5117.1201 14162.92
1056.01 5114.4199 14157.11
1061.22 5119.8198 14145.06
1065.65 5121.4199 14153.85
1069.74 5121.3901 14160.16
1072.59 5120.3101 14165.14
1075.85 5116.3101 14164.73
1079.42 5113.7998 14162.17
1085.29 5122.1899 14166.79
1089.11 5120.8501 14165.39
1091.58 5117.9902 14161.32
1095.4399 5116.8599 14164.63
1099.87 5118.3799 14167.04
1103.48 5116.0601 14169.2
1107.55 5115.8799 14168.95
1111.14 5118.2002 14179.24
1051.5 5124.8398 14148.88
1055.01 5124.48 14151.94
1074.85 5128.6401 14157.15
1077.61 5124.7202 14156.66
1082.0601 5126.3501 14165.54
1087.79 5131.54 14161.62
1091.11 5130.2598 14160.12
1094.15 5130.04 14163.27
1097.96 5126.2002 14159.46
1101.91 5127.8398 14161.87
1109.96 5127.0098 14166.34
1116.5 5121.5801 14166.19
1121.24 5122.0898 14178.64
1124.99 5120.4102 14180.55
1072.71 5135.6001 14136.87
1079.38 5133.1099 14148.57
1083.29 5132.1602 14150.33
1089.6801 5140.4502 14154.93
1092.35 5136.0801 14144.9
1096.49 5141.02 14162.31
1100.12 5136.3101 14154.03
1104.3101 5136.6401 14155.18
1112.39 5135.8398 14159.75
1115.72 5136.96 14168.79
1119.27 5131.9302 14163.82
1122.66 5128.5698 14163.17
1126.64 5127.9399 14167.99
1132.0601 5136.1699 14167.78
1135.0699 5133.4199 14168.53
1142.5 5129.6802 14169.29
1146.72 5130.0801 14177.01
1150.74 5131.8901 14184.14
1154.1 5130.73 14180.98
1159.05 5132.0298 14191.52
1081.5601 5141.0298 14137.42
1084.87 5139.6401 14137.67
1091.15 5147.4199 14140.87
1094.47 5146.0298 14141.12
1097.89 5145.1401 14142.78
1102.03 5145.2002 14147.34
1106.34 5146.0698 14150
1109.86 5143.23 14150.75
1114.65 5146.2998 14157.37
1117.1 5143.2998 14155.07
1121.4399 5141.8799 14160.04
1125.1801 5140.0801 14163.71
1128.83 5137.8901 14164.21
1133.92 5144.5801 14159.77
1137.04 5142.3398 14161.94
1140.51 5139.3198 14164.35
1145.55 5141.0698 14169.82
1148.71 5138.98 14170.33
1152.16 5138.2002 14170.33
1155.87 5138.6001 14171.48
1160.36 5137.8398 14176.3
1165.46 5142.0698 14184.16
1169.63 5142.1899 14186.97
1186.49 5145.5498 14189.26
1100.01 5155.0801 14138.99
1103.9399 5154.1201 14140.75
1108.51 5156.1699 14144.55
1111.02 5148.6201 14132.38
1116.47 5154.6699 14149.27
1119.14 5152.7002 14149.78
1124.54 5156.1099 14151.42
1127.35 5150.0298 14159.92
1131.16 5146.1602 14156.11
1136.45 5156.0601 14160.2
1144.39 5154.46 14158.54
1147.66 5150.5098 14164.62
1151.3101 5148.2998 14165.13
1159.8 5153.7402 14165.66
1162.4 5146.8799 14167.94
1167.27 5147.7402 14168.93
1175.47 5151.8398 14169.97
1178.64 5147.5498 14179.37
1182.7 5144.8501 14176.81
1188.5601 5152.25 14176.84
1194.84 5150.1602 14191.8
1125.7 5161.4102 14149.4
1128.62 5155.7998 14144.69
1133.58 5157.1499 14155.23
1138.25 5161.8701 14143.31
1149.76 5159.9302 14159.42
1153.1801 5156.6699 14157.02
1156.88 5156.9502 14159.93
1169.79 5158.8501 14166.29
1173.47 5156.7798 14165.13
1180.3199 5154.8999 14168.45
1184.62 5153.21 14168.71
1192.05 5151.5801 14183.41
1196.33 5156.6001 14176.31
1200.0601 5154.7202 14179.88
1123.65 5171.0498 14136.21
1127.1801 5168.1899 14136.98
1131.4 5166.1401 14142.3
1134.85 5162.9302 14139.99
1147.42 5168.1201 14148.4
1151.73 5168.8101 14152.71
1156.47 5171.3901 14149.78
1160.1801 5171.6401 14152.59
1163.22 5168.9702 14159.83
1168.47 5171.4199 14156.9
1171.5601 5166.7002 14156.77
1175.73 5166.71 14161.33
1179.3199 5166.4302 14162.73
1183.95 5168.4399 14158.3
1187.05 5163.7998 14164.65
1190.29 5159.7402 14164.25
1198.03 5163.8999 14165.29
1201.89 5162.5601 14170.36
1206.4 5161.77 14175.18
1210.2 5162.3799 14181.15
1145.55 5178.46 14135.05
1148.9301 5174.9302 14136.07
1153.75 5175.5098 14140.38
1160.78 5174.3198 14143.44
1164.29 5173.6899 14141.78
1169.51 5176.0498 14155.12
1173.9301 5177.1401 14154.36
1177.87 5176.0898 14156.02
1181.34 5175.2998 14156.02
1185.16 5173.73 14156.27
1190.52 5178.8799 14160.45
1192.7 5170.1802 14161.85
1198 5177.3101 14158.79
1201.0699 5174.77 14164.38
1205.6899 5176.6401 14161.7
1208.23 5169.6099 14165.65
1211.55 5168.1499 14165.9
1218.4399 5168.5698 14173.27
1223.8101 5171.3198 14181.63
1227.83 5170.6299 14178.22
1232.01 5172.7998 14188.5
1240.49 5177.5098 14181.13
1255.65 5175.0801 14190.51
1160.02 5184.9102 14139.63
1167.25 5184.5298 14140.78
1171.05 5182.8501 14142.78
1175.73 5182.77 14139.12
1180.4 5187.2202 14153.44
1183.25 5183.6802 14147.98
1187.4301 5183.6499 14152.45
1192.36 5184.6001 14159.91
1197.04 5188.9902 14151.4
1200.67 5186.6001 14153.57
1203.13 5183.6201 14157.65
1206.89 5181.7798 14161.32
1214.74 5179.52 14166.39
1220.41 5176.9102 14165.14
1225.53 5176.3999 14164.89
1229.45 5177.4302 14165.88
1233.91 5178.5801 14171.59
1242.52 5186 14171.33
1246.58 5183.1899 14176.92
1250.77 5183.1499 14181.48
1254.15 5181.8901 14186.55
1266.62 5185.5498 14187.31
1182.2 5192.8398 14138.19
1184.6801 5189.9102 14134.14
1189.11 5190.9502 14141.51
1193.55 5189.7798 14143.17
1209.2 5191.6899 14157.49
1216.97 5189.04 14159.4
1220.3 5187.5601 14159.66
1223.4 5187.3701 14161.06
1227.79 5185.9399 14158
1233.64 5192.8799 14163.07
1236.88 5191.02 14160.26
1244.77 5193.1802 14160.38
1248.08 5189.4302 14163.07
1252.16 5188.8799 14166.22
1255.41 5187.0801 14169.8
1258.5699 5187.1201 14176.02
1262.84 5187.3398 14185.39
1268.14 5191.7998 14173.46
1272.6899 5190.9502 14178.27
1277.0699 5193.7598 14188.29
1279.9301 5192.52 14186.88
1204.78 5204.3198 14140.19
1210.5601 5197.5498 14140.58
1215.59 5198.8398 14151
1223.12 5199.5601 14161.53
1225.87 5197.8301 14158.72
1231.35 5200.98 14153.77
1234.9 5198.1699 14161.01
1238.39 5197.3398 14161.01
1251.21 5200.2798 14162.13
1257.3 5194.8901 14160.25
1260.47 5194.9502 14166.47
1264.39 5193.7202 14169.88
1270.6801 5200.0298 14165.4
1274.86 5199.8198 14171.62
1278.21 5198.4199 14170.12
1281.47 5198.75 14173.02
1285.46 5195.6602 14173.79
1290.42 5198.6001 14180.39
1217.42 5206.6499 14141.46
1220.51 5204.1401 14138.91
1225.46 5209.5098 14141.42
1227.46 5204.5698 14146.27
1232.36 5205.23 14148.92
1236.51 5204.9502 14148.66
1245.1899 5210.3599 14155.63
1249.26 5211.9102 14149.79
1254.67 5199.29 14163.78
1263.25 5204.21 14161.21
1268.4301 5208.1099 14164.24
1272.84 5208.8501 14158.65
1276.39 5206.04 14157.76
1280.52 5207.79 14164.87
1283.26 5206.0298 14162.06
1287.65 5204.48 14167.04
1238.98 5215.3599 14146.21
1242.86 5213.8901 14144.81
1246.05 5213.96 14151.03
1255.88 5219.6602 14151.26
1256.8101 5208.1602 14157.13
1266.0699 5215.8301 14160
1269.84 5213.9102 14163.58
1283.08 5218.2002 14162.41
1286.11 5217.6001 14160.75
1289.84 5213.3398 14160.38
1261.35 5224.7798 14139.15
1267.5699 5222.0298 14146.14
1272 5222.77 14156.91
1277.83 5229.29 14150.67
1281.27 5225.9502 14148.38
1285.76 5226.9302 14155.74
1288.9301 5226.8501 14155.48
1293.17 5224.6802 14160.81
1296.78 5224.2002 14155.74
1280.24 5236.9302 14141.09
1283.9301 5234.6299 14141.61
1295.26 5233.1201 14150.98
1299.36 5234.6001 14153.27
1303.8101 5233.23 14156.68
1297.1801 5240.8799 14141.4
1306.17 5242.6899 14149.65
1307.58 5248.3301 14134.36
1311.33 5248.3999 14138.91
1316.63 5254.6099 14137.72
1321.04 5252.9502 14136.32
0 0 0 1 0 0 0 1 0 0 0 1 0 0 0 0 0 300 1 0 0
