ply
format ascii 1.0
comment PCL generated
element vertex 1769
property float x
property float y
property float z
element camera 0
property float view_px
property float view_py
property float view_pz
property float x_axisx
property float x_axisy
property float x_axisz
property float y_axisx
property float y_axisy
property float y_axisz
property float z_axisx
property float z_axisy
property float z_axisz
property float focal
property float scalex
property float scaley
property float centerx
property float centery
property int viewportx
property int viewporty
property float k1
property float k2
end_header
1310.62 4260.4702 14593.41
1281.34 4274.4302 14596.74
1291.49 4282.8701 14607.7
1295 4282.6299 14620.22
1297.21 4279.5698 14617.78
1301.85 4274.2202 14620.5
1305.33 4272.3901 14585.59
1307.02 4267.6802 14572.49
1309.42 4266.7598 14569.41
1310.36 4259.6401 14550.6
1274.45 4293.3101 14609.38
1292.8 4299.1401 14617.24
1294.65 4293.3701 14606.01
1297.66 4291.4199 14612.7
1298.5699 4284.0698 14595.63
1299.5699 4278.4902 14589.13
1303.24 4277.3101 14593.96
1304.99 4271.3101 14544.52
1306.41 4265.71 14528.46
1308.28 4263.0498 14519.45
1310.5601 4258.8198 14510.97
1262.88 4311.8398 14601.68
1264.41 4303.3198 14586.49
1270.52 4301.23 14593.06
1277.6899 4304.2202 14609.02
1290.23 4302.5698 14618.03
1292.1899 4297.1401 14573.11
1295.25 4293.8501 14570.67
1297.0601 4289.4302 14568.56
1298.1 4282.5298 14553.03
1299.88 4279.5298 14555.33
1303.04 4276.6499 14554.32
1304.76 4270.5601 14504.8
1306.78 4266.9102 14492.92
1270.99 4325.7002 14622.41
1280.9399 4315.1602 14608.75
1284.46 4313.3901 14608.97
1288.5 4305.8198 14591.7
1292 4294.9902 14529.08
1295.09 4293.3301 14529.29
1297.25 4288.5898 14528.93
1300.0601 4278.6499 14515.6
1302.42 4274.6001 14510.2
1251.35 4332.48 14593.42
1256.22 4335.2798 14606.51
1258.71 4331.4502 14604.3
1261.33 4328.0801 14598.68
1269.17 4344.1401 14628.3
1271.09 4338.3501 14617.08
1273.95 4335.7798 14619.17
1277.14 4334.3398 14622.56
1278.73 4327.5 14605.29
1280.1899 4323.27 14598.47
1282.49 4318.8799 14581.98
1284.89 4314.8301 14576.59
1286.72 4308.8799 14557.36
1288.5699 4304.5298 14550.53
1292.48 4296.6001 14495.06
1293.8199 4289.1099 14478.01
1296.48 4286.0601 14483.38
1300.61 4280.4502 14484.67
1258.9399 4357.1899 14639.75
1260.52 4350.1401 14619.31
1262.39 4344.1099 14609.74
1266.29 4345.0801 14618.75
1270 4345.4302 14595.92
1272.02 4341.5 14590.52
1273.77 4333.6201 14575.13
1276.1899 4329.5601 14569.74
1278.51 4326.73 14565.56
1280.6 4324.6602 14565.99
1282.39 4318.54 14543.78
1284.66 4314.04 14536.86
1286.36 4307.6802 14516.29
1290.04 4300.4399 14497.28
1293.01 4298.3599 14464.13
1294.88 4291.1499 14448.52
1296.3101 4285.4702 14442.12
1299.91 4278.1401 14437.58
1239.76 4372.4399 14608.04
1257.87 4364.46 14621.66
1260.36 4362.0898 14619.01
1261.9399 4355.02 14598.57
1265.9301 4354.75 14606.27
1268.63 4351.5801 14603.84
1269.9 4345.0698 14557.71
1271.14 4338.52 14543.53
1274.17 4334.9902 14542.75
1276.66 4331.1802 14535.71
1277.89 4324.6299 14521.53
1280.24 4323.4399 14524.92
1282.92 4320.3198 14512.84
1284.5699 4312.23 14494.27
1286.46 4306.52 14473.49
1290.3101 4301.3301 14463.49
1292.89 4296.4702 14421.56
1295.26 4292.4199 14416.17
1297.88 4289.2002 14418.46
1298.13 4279.6499 14394.16
1235.77 4385.6001 14615.64
1240.78 4388.8599 14634.98
1247.98 4388.5801 14628.07
1257.0699 4371.1299 14606.96
1259.4399 4368.3301 14597.96
1260.9399 4364.1201 14586.31
1262.75 4356.27 14566.19
1264.9399 4351.3398 14557.84
1267.51 4347.73 14553.88
1269.84 4344.8799 14517.76
1272.02 4339.9702 14509.51
1274.46 4335.98 14489.64
1276.92 4332.04 14501.81
1278.6899 4325.8198 14489.16
1280.14 4321.5898 14482.34
1282.5601 4317.5801 14467.3
1284.05 4310.48 14451.69
1287.23 4309.0801 14445.43
1288.88 4304.0801 14438.82
1290.3101 4299.8701 14422.35
1292.47 4295.0801 14380.43
1294.84 4291.0298 14375.04
1297.99 4289.5601 14383.16
1299.16 4283.04 14369.07
1221.4301 4397.6201 14613.24
1226.29 4400.3999 14608.75
1230.37 4401.98 14631.92
1232.37 4396.1201 14630.37
1234.95 4395.6099 14633.45
1240.53 4400.8501 14629.83
1243.22 4397.4702 14624.23
1246.75 4397.1001 14633.57
1248.2 4389.3599 14613.46
1248.71 4381.5898 14594.9
1254.92 4376.2998 14581.61
1256.2 4368.1099 14559.97
1258.23 4364.1299 14527.46
1260.87 4362.2798 14543.71
1263.51 4358.8901 14538.11
1265.2 4352.23 14524.03
1267.96 4349.29 14519.85
1270.38 4345.1802 14482.53
1271.62 4338.6099 14468.36
1274.55 4336.29 14473.62
1276.29 4328.3999 14453.41
1279.3199 4327.96 14459.67
1280.0601 4321.3301 14442.41
1282.41 4317.1001 14429.12
1284.88 4313.2798 14422.08
1286.5601 4306.8501 14401.44
1288.0699 4301.3799 14393.3
1290.6801 4301.1001 14390
1291.65 4292.3501 14335.02
1295.45 4281.1602 14318.75
1214.8101 4408.1899 14605.79
1216.99 4402.9102 14586.45
1224.3 4406.2998 14605.57
1226.51 4401.1699 14594.14
1232.1 4408.1699 14615.56
1234.17 4402.52 14612.27
1238.47 4406.5098 14633.12
1241.03 4402.6299 14598.87
1243.77 4397.8101 14588.88
1246.1899 4393.5098 14585.14
1247.77 4387.8701 14569.21
1249.8 4383.8101 14546.26
1252.5 4380.52 14558.13
1254.95 4376.4102 14525.62
1256.5699 4369.4102 14527.59
1258 4363.3301 14505.29
1259.9399 4359.0601 14479.27
1263.45 4358.6699 14498.26
1264.59 4348.5898 14475.62
1267.86 4347.3799 14477.27
1269.0699 4340.71 14431.18
1272.24 4340.71 14438.86
1274.11 4333.25 14425.01
1277.1899 4331.4399 14407.68
1277.75 4322.6299 14405.45
1279.52 4319.5 14399.84
1283.29 4320.0601 14402.59
1284.23 4309.5698 14373.69
1286.54 4305.2798 14360.31
1287.85 4300.6299 14352.05
1289.34 4296.6001 14338.67
1214.71 4421.0298 14603.48
1217.66 4416.8701 14598.11
1224.41 4429.73 14638.4
1227.9 4419.2798 14609.3
1233.1801 4423.48 14631.59
1234.99 4416.8398 14607.87
1236.8199 4410.3398 14601.72
1238.79 4407.6299 14597.55
1240.65 4401.2798 14557.7
1243.88 4398.21 14553.53
1246.1801 4393.48 14548.37
1248.4301 4388.5801 14535.3
1249.8199 4383.8999 14527.05
1252.26 4379.71 14499.28
1254.78 4375.8198 14506.63
1257.12 4369.7402 14473.05
1259.15 4365.7798 14477.32
1260.33 4360.4199 14464.37
1263.41 4356.9702 14439.56
1265.2 4350.6802 14446.12
1268.21 4348.6099 14444.91
1270.1899 4344.54 14407.6
1271.85 4337.8398 14393.44
1274.2 4333.5498 14389.7
1277.26 4331.6802 14391.57
1279.1 4325.6699 14377.28
1281.0699 4323.1899 14376.28
1282.53 4317.5 14355.43
1284.5601 4310.7002 14341.26
1286.5 4305.1201 14323.58
1288.6 4301.6201 14319.62
1291.4 4302 14320.93
1195.39 4435.5298 14592.71
1212.87 4437.6499 14616.21
1217.6 4444.9199 14642.44
1220.59 4440.77 14632.24
1226.05 4434.0298 14616.21
1229.12 4423.6699 14587.12
1232.8101 4422.1299 14590.42
1234.36 4414.6099 14563.84
1237.05 4411.1802 14567.8
1239.4 4409.79 14568.02
1240.6801 4399.7598 14516.54
1243.12 4395.5098 14508.08
1246.29 4393.8701 14513.13
1248.16 4387.6299 14495.67
1249.04 4381.1602 14481.51
1252.66 4381.0898 14484.47
1254.74 4374.0698 14462.41
1257.26 4370.2202 14455.28
1259.5 4366.98 14444.95
1259.95 4357.54 14418.94
1262.91 4355.25 14414.55
1263.88 4346.1401 14394.78
1267.28 4345.3999 14397.96
1269.26 4339.8301 14356.27
1270.76 4334.1299 14345.07
1274.15 4333.3701 14352.97
1276.04 4327.5498 14341.76
1278.1899 4322.6099 14314.23
1279.58 4318.1802 14323.52
1281.9 4313.8701 14290.96
1284.11 4309.1899 14300.24
1285.64 4302.2598 14259.01
1287.09 4296.6001 14266.98
1289.96 4297.1699 14266.54
1214.9 4456.8501 14632.64
1216.49 4450.8901 14623.1
1219.59 4450.5098 14624.53
1222.03 4446.04 14612.9
1224.16 4440.4502 14600.05
1226.1 4434.2202 14577.77
1227.97 4429.3799 14569.44
1229.9 4424.8198 14554.73
1231.99 4419.2002 14541.78
1233.91 4412.9902 14519.6
1237.34 4410.6001 14510.39
1239.4301 4408.29 14526.95
1241.2 4401.6401 14483.95
1243.5 4395.2598 14471.32
1246.99 4394.73 14477.58
1247.87 4386.6001 14455.96
1249.55 4381.3398 14446.18
1252.54 4379.0801 14441.89
1254.4301 4373.02 14422.7
1256.34 4367.0098 14408.42
1259.45 4366.8198 14408.2
1260.29 4358.7002 14386.58
1262.73 4354.6401 14376.37
1265.59 4350.4702 14370.99
1268.02 4346.4102 14365.61
1269.65 4341.1401 14322.28
1271.14 4335.4199 14310.99
1273.72 4330.3901 14307.56
1276.45 4327.4199 14303.4
1278.0601 4322.1699 14293.62
1280.03 4319.6899 14292.62
1281.77 4313.4199 14270.35
1284.45 4308.8101 14263.53
1285.65 4300.7798 14235.44
1287.79 4298.9399 14238.95
1290.26 4298.1802 14234.13
1213.04 4461.8398 14602.43
1215.55 4457.54 14598.71
1217.5 4452.9199 14593.56
1219.45 4450.0098 14586.32
1221.83 4445.29 14571.51
1224.4399 4439.8101 14561.84
1225.96 4433.6802 14539.57
1229.05 4433.2798 14545.82
1230.11 4425.5698 14520.81
1232.51 4419.4199 14506.54
1234.54 4413.6001 14485.7
1237.17 4409.98 14491.4
1239.02 4406.8301 14485.8
1241.29 4401.9302 14448.71
1244.02 4397.0801 14438.73
1245.9399 4391.02 14429.19
1248.49 4387.1899 14422.16
1248.99 4379.3901 14403.62
1252.61 4379.3301 14406.58
1254.38 4372.8301 14385.96
1255.26 4363.2598 14360.05
1259.11 4364.04 14361.05
1259.77 4356.8999 14342.29
1262.8199 4353.3901 14336.69
1264.29 4346.0098 14303.66
1267.76 4345.5 14324.28
1269.4301 4340.3999 14284.04
1271.21 4334.1401 14271.41
1273.24 4328.77 14266.46
1276.63 4328.0098 14269.54
1279.04 4323.96 14264.15
1279.8199 4317.46 14230.92
1281.95 4314.0098 14236.6
1284.86 4310.2002 14213.47
1287.13 4305.73 14216.19
1288.77 4300.71 14209.59
1292.67 4304.73 14201.63
1179.13 4488.0098 14613.24
1180.66 4481.6201 14602.28
1184.15 4480.9102 14605.36
1187.89 4481.1201 14606.57
1209.87 4463.6899 14595.73
1213.0699 4460.2598 14561.26
1215.51 4457.4199 14561.93
1218.02 4454.8198 14560.94
1219.49 4450.1201 14547.89
1221.61 4442.8301 14527.49
1224.77 4441 14529.35
1226.21 4432.9399 14501.27
1227.78 4428.6899 14494.47
1229.8199 4424.5298 14481.19
1232.34 4418.7998 14468.25
1234.36 4412.9702 14447.51
1236.87 4408.8999 14451.69
1239.27 4406.1001 14428.42
1241.52 4401.1201 14410.44
1244.08 4397.29 14403.42
1246.13 4391.6899 14395.4
1248.36 4386.7202 14382.25
1249.62 4381.5801 14372.48
1252.54 4379.0898 14369.84
1254.98 4373.3501 14352.18
1256.11 4364.6401 14329.13
1258.4 4361.5801 14317.07
1261 4359.6099 14315.76
1262.55 4352.46 14295.46
1264.28 4345.9702 14284.48
1267.47 4344.5 14268.6
1269.23 4338.1699 14241.52
1271.37 4334.7002 14237.66
1273.46 4329.52 14230.97
1276.27 4326.8101 14229.97
1278.03 4320.5498 14217.34
1280.0601 4318.2598 14214.6
1169.34 4505.2002 14631.09
1170.4 4495.1099 14613.33
1175.59 4486.79 14604.25
1182.98 4490.4199 14594.56
1193.38 4500.1201 14632.39
1196.41 4499.3198 14632.39
1197.39 4492.6001 14610.35
1202.34 4485.27 14594.56
1205.24 4482.3198 14595.23
1206.62 4473.79 14570.45
1208.83 4471.75 14575.72
1210.4399 4465.79 14566.19
1213.15 4460.5601 14526.01
1215.47 4457.2598 14525.16
1217.73 4453.7798 14521.31
1219.01 4446.71 14500.92
1222.05 4444.4302 14496.53
1224.23 4439.04 14486.77
1226.4 4433.6401 14467.47
1228.02 4427.9302 14456.28
1230.3101 4424.6499 14445.86
1231.65 4416.3599 14424.26
1234.17 4412.29 14409.33
1237.25 4410.25 14417.67
1239.58 4407.1802 14415.16
1240.8101 4398.6299 14366.46
1243.79 4394.6802 14359.44
1245.8 4390.5298 14355.71
1247.39 4383.3398 14335.31
1249.08 4378.0898 14325.65
1251.99 4375.5698 14322.91
1254.39 4371.2798 14309.64
1256.33 4365.4199 14293.63
1258.8101 4363.0298 14286.16
1259.62 4354.8599 14264.56
1262.1899 4351.2202 14255.79
1264.7 4347.3999 14253.58
1267.48 4342.98 14245.03
1289.76 4325.0898 14208.5
1171.29 4512.71 14619.07
1173.52 4507.0698 14615.8
1176.52 4502.6802 14607.26
1179.4399 4499.7402 14607.93
1183.74 4505.5898 14617.01
1188.37 4510.8799 14624.66
1189.29 4500.3301 14595.83
1194.17 4503.0898 14605.7
1196.13 4498.27 14592.65
1197.4 4492.6499 14571.81
1199.34 4487.8198 14563.59
1202.97 4485.8701 14560.64
1204.71 4480.3701 14552.63
1207.0601 4475.3999 14539.49
1208.61 4470.9102 14534.34
1211.73 4468.8701 14537.96
1212.61 4458.5498 14483.44
1215.66 4457.9502 14491.34
1217.25 4450.3301 14474.35
1218.7 4445.5898 14461.2
1220.77 4439.7598 14445.29
1224.05 4438.3599 14448.59
1224.98 4428.4902 14414.7
1227.95 4427.6802 14419.53
1230.3 4424.6201 14407.46
1233.13 4420 14400.66
1234.34 4412.8999 14375.45
1236.84 4407.1602 14372.16
1238.6801 4404.0098 14366.57
1240.72 4398.3101 14329.73
1243.3199 4393.0098 14318.33
1245.12 4386.52 14307.35
1248.23 4384.6899 14304.5
1249.1 4378.1802 14290.36
1252.01 4375.6602 14287.62
1253.84 4369.3599 14265.46
1255.97 4364.1499 14253.96
1258.74 4361.1899 14245.07
1259.77 4355.3501 14230.71
1173.58 4521.52 14611.33
1180.29 4517.1099 14615.31
1184.58 4519.3398 14635.16
1186.85 4515.6602 14594.44
1189.11 4511.9502 14592.25
1191.45 4506.77 14580.85
1194.1801 4503.1401 14567.26
1196.4399 4499.4302 14560.25
1196.86 4490.6401 14529.23
1199.47 4486.5801 14523.86
1202.4301 4483.8599 14518.05
1204.73 4478.7002 14511.48
1206.64 4473.8599 14498.43
1208.4301 4470.2402 14496.14
1210.46 4464.1602 14486.62
1212.35 4455.8999 14439.34
1215.65 4456.23 14450.2
1217.05 4449.6201 14436.16
1218.88 4446.2202 14427.4
1221.05 4440.79 14412.82
1223.21 4433.7002 14395.61
1226.3 4431.6401 14389.58
1226.62 4422.8901 14368.21
1228.72 4418.9302 14353.29
1232.6 4418.0898 14356.37
1234.48 4411.7598 14334.11
1237.5 4409.5298 14344.2
1238.22 4402.3501 14325.55
1240.41 4395.5898 14285.77
1243.09 4392.1899 14280.18
1246.09 4389.9302 14280.61
1247.23 4381.1699 14257.59
1248.22 4375.1001 14244.88
1252.74 4378.1802 14258.02
1254.65 4370.6201 14234.56
1256.14 4363.1802 14215.82
1154.41 4527.9302 14596.49
1175.9399 4541.3799 14632.19
1177.58 4535.1802 14619.59
1179.42 4527.9702 14608.87
1182.91 4525.3599 14606.14
1185 4520.9702 14604.18
1187.27 4517.25 14563.46
1188.64 4510.1401 14547.91
1191.15 4505.6299 14541.12
1193.72 4499.6401 14520.29
1195.95 4497.6201 14516.01
1197.71 4492.0898 14498.36
1199.52 4486.79 14488.62
1201.9301 4482.02 14473.83
1204.47 4477.75 14470.11
1206.88 4473.0298 14460.24
1207.63 4467.29 14450.71
1210.63 4464.79 14452.81
1213.1801 4458.96 14411.14
1215.2 4454.5698 14409.07
1217.46 4451.1001 14405.22
1219.28 4447.6899 14396.46
1220.39 4436.75 14364.46
1223.74 4435.6201 14366.21
1226.02 4430.6299 14348.34
1227.64 4424.8901 14337.16
1230.54 4423.8198 14333.99
1231.62 4414.6001 14309.54
1234 4410.04 14293.1
1236.77 4406.9199 14300.23
1238.53 4401.8501 14288.83
1240.6 4396.2598 14250.26
1243.22 4392.6602 14246.32
1246.22 4390.3901 14246.76
1247.36 4381.6099 14223.74
1140.24 4554.3398 14605.35
1151.6801 4544.5 14605.95
1153.38 4536.6001 14590.63
1158.48 4542.0498 14606.17
1160.39 4538.6602 14602.24
1165.5601 4544.3398 14620.97
1171.86 4552.5898 14619.47
1174.65 4548.9702 14610.71
1175.66 4540.2798 14592.54
1177.9399 4536.5601 14585.53
1180.77 4533.1699 14589.5
1183.09 4526.0601 14572.3
1185.14 4519.7202 14564.44
1186.73 4515.1802 14520.88
1188.45 4509.4199 14509.71
1190.41 4502.8701 14493.94
1194.24 4501.6201 14490.86
1195.7 4494.9302 14471.91
1197.5 4491.3101 14460.07
1199.49 4486.6699 14450.11
1202.4 4482.0298 14438.5
1203.9 4475.6201 14427.54
1206.66 4472.23 14421.96
1208.6899 4469.5298 14422.63
1210.97 4464.3599 14416.06
1212.47 4456.3501 14367.16
1214.92 4453.5498 14367.82
1217.36 4450.7402 14368.48
1218.87 4444.52 14351.06
1221.34 4440.1802 14337.7
1223.26 4433.8799 14325.1
1225.28 4427.96 14304.28
1227.39 4424.0098 14298.91
1229.67 4420.7002 14288.5
1231.75 4415.0601 14275.68
1234.62 4412.2798 14265.05
1236.95 4405.9399 14262.09
1238.66 4402.2998 14254.98
1141.4301 4559.0801 14584.56
1146.41 4564.1201 14608.23
1154.02 4553.7598 14599.62
1158.79 4557.8599 14620.45
1163.84 4563.0801 14637.64
1165.1899 4557.4302 14626.48
1167.35 4551.3398 14607.4
1170.75 4548.27 14569.64
1173.42 4544.2002 14559.46
1176.08 4540.1299 14554.1
1177.75 4535.8301 14547.21
1180.08 4528.73 14539.68
1182.3101 4523.0601 14526.76
1184.6 4517.6499 14521.86
1187.13 4514.9702 14482.46
1188.61 4510.02 14475.89
1191.48 4505.1602 14465.93
1192.95 4496.75 14439.54
1195.01 4492.3301 14427.92
1196.6899 4488.25 14414.66
1199.59 4485.2998 14410.5
1202.1801 4481.21 14400.32
1204.36 4475.6099 14392.32
1206.08 4470.0498 14379.41
1208.96 4470.52 14390.26
1209.64 4459.46 14364.75
1212.9 4456.25 14331.85
1215.72 4454.8198 14336.89
1216.62 4446.3501 14316.96
1218.0601 4441.6001 14303.92
1221.35 4440.2202 14302.5
1223.1899 4431.96 14284
1224.91 4426.6201 14264.71
1227.02 4422.6699 14259.34
1229.55 4420.2598 14251.89
1238.52 4401.8198 14218.27
1137.34 4576.2598 14616.38
1140.37 4569.7202 14598.97
1145 4573.3398 14594.21
1150.86 4581.8101 14626.41
1155.05 4572.5498 14616.16
1158.91 4573.04 14625.36
1161.8101 4567.9399 14617.06
1163.78 4562.8398 14600.84
1166.52 4562.6299 14607.1
1168.48 4553.9102 14577.62
1171.14 4549.7798 14538.66
1172.83 4540.1401 14511.07
1175.1801 4536.6299 14507.14
1177.3199 4534.1699 14506.16
1180.12 4528.8599 14504.33
1181.75 4520.9302 14484.19
1184.5699 4517.5601 14483.43
1186.6801 4513.2402 14441.32
1188.8199 4509.0698 14437.61
1190.79 4502.5298 14421.94
1193.09 4497.29 14405.73
1195.63 4494.6802 14399.93
1196.46 4485.6602 14368.94
1199.24 4484.0098 14370.9
1201.58 4479 14357.77
1204.36 4475.6299 14357.01
1206.45 4469.7202 14341.02
1208.3 4468.0698 14344.64
1210.45 4462.4199 14336.55
1213.76 4459.3999 14306.74
1214.49 4450.2998 14287.13
1217.73 4450.4102 14294.8
1218.55 4443.3701 14274.44
1221.01 4437.3398 14258.45
1223.6899 4433.75 14254.61
1130.6801 4588.9399 14596.84
1134.72 4590.1401 14605.82
1138.62 4579.5098 14591.2
1143.8199 4583.54 14607.18
1149.87 4590.9302 14612.38
1153.17 4589.1802 14614.35
1154.4399 4583.0498 14606.5
1157.0601 4580.4702 14605.53
1159.16 4572.1699 14587.05
1161.74 4567.6602 14580.27
1164.2 4562.6699 14562.4
1166.42 4560.4102 14564.51
1168.86 4555.4199 14546.64
1172.5 4538.8398 14471.35
1175.2 4536.7202 14471.8
1177.3101 4532.3198 14465.02
1179.67 4527.1299 14463.19
1181.86 4519.5498 14444.58
1186.6899 4513.29 14406.09
1188.47 4507.7598 14398
1190.6801 4502.1001 14385.2
1193.05 4495.3701 14364.61
1195.58 4492.75 14358.81
1197.1801 4488.3799 14342.38
1198.87 4482.6299 14331.22
1201.8199 4479.8901 14325.42
1203.38 4471.98 14310.1
1205.71 4466.98 14297.06
1207.62 4463.8599 14296.3
1210.75 4461.8301 14299.82
1212.64 4455.2798 14258.41
1214.84 4451.5898 14256.22
1216.72 4446.7202 14247.91
1219.33 4444.54 14243.53
1221.24 4438.1699 14226.12
1128.88 4612.0698 14626.6
1135 4606.4702 14616.74
1142.86 4607.9102 14631.66
1144.3199 4602.4702 14628.42
1148.0699 4600.5801 14625.57
1150.02 4591.5498 14578.53
1152.51 4586.5601 14570.23
1155.1 4585.6802 14576.72
1157.3199 4581.5298 14573.12
1159.3101 4572.77 14553.21
1160.97 4564.6099 14534.83
1165.04 4565.9702 14537.23
1165.6899 4557.5601 14517.33
1168.1899 4552.7998 14502.64
1170.87 4548.73 14497.29
1171.3199 4548.6602 14461.95
1176 4538.0098 14440.84
1177.79 4534.1699 14435.49
1179.62 4526.9399 14424.78
1182.51 4522.0601 14414.83
1183.97 4513.4902 14399.84
1188.35 4507.29 14361.26
1190.3 4500.7002 14345.51
1193.5699 4497.3599 14333.46
1195.21 4491.3599 14319.22
1196.33 4485.1699 14297
1199.53 4483.3701 14298.87
1202.11 4479.2598 14288.69
1203.61 4472.8301 14277.75
1206.1801 4468.7202 14267.58
1207.72 4464.2202 14262.44
1210.6 4461.3101 14263.11
1213.28 4455.9702 14226.07
1122.35 4625.6802 14619.65
1128.61 4622.48 14621.75
1130.48 4618.6099 14611.58
1135.55 4622.02 14632.61
1138.24 4617.7002 14614.53
1142.78 4607.5898 14594.86
1144.87 4604.6602 14597.2
1148.08 4598.77 14584.4
1150.5 4593.46 14548.97
1151.84 4583.8999 14526.22
1154.9 4584.8701 14538.51
1156.86 4577.8501 14526.16
1159.85 4574.8999 14522.01
1160.85 4562.29 14492.25
1163.3199 4559.21 14480.2
1165.24 4555.8101 14476.28
1168.29 4551.3501 14462.93
1170.5 4545.48 14416.54
1172.21 4537.71 14429.99
1173.12 4539.4302 14400.57
1178.02 4535.0801 14403.11
1180.53 4528.6602 14395.36
1181.79 4519.3101 14370.86
1184.92 4517.1099 14376.13
1188.7 4506.8799 14322.88
1190.96 4501.4302 14313.15
1193.6801 4497.75 14299.68
1194.87 4490.1001 14277.9
1197.21 4486.7598 14267.5
1198.7 4480.27 14251.75
1201.04 4475.2598 14238.72
1204.0601 4472.7998 14240.82
1205.78 4467.2402 14228.01
1207.9301 4465.02 14230.11
1210.33 4460.29 14224.97
1119.5699 4629.7402 14624.99
1125.05 4636.8101 14619.07
1128.16 4634.1299 14618.1
1130.1 4628.5601 14605.3
1133.49 4630.8799 14612.3
1135.97 4623.73 14599.96
1140.79 4612.8101 14570.97
1143.6 4610.8799 14569.67
1144.88 4602.8301 14556.13
1147.24 4595.3999 14535.79
1149.25 4588.4702 14497.74
1151.85 4583.9302 14490.88
1154.08 4579.77 14487.28
1156.98 4578.3301 14492.24
1158.58 4569.8901 14470.69
1161.25 4563.8799 14459.54
1163.4301 4559.6602 14446.29
1166.26 4557.98 14448.17
1168.52 4552.27 14430.54
1170.84 4546.8101 14385.59
1173.46 4540.75 14369.62
1177.14 4529.8999 14351.92
1180.63 4529.0498 14361.47
1182.45 4520.0498 14338.49
1185.02 4517.4902 14342.24
1188.3101 4505.3799 14283.21
1190.5 4499.7002 14270.41
1193.95 4497.0498 14262.96
1204.87 4475.8301 14215.71
1114.01 4647.6699 14619.73
1119.48 4644.9302 14629.75
1122.83 4643.1802 14631.73
1130.2 4640.5498 14603.07
1131.35 4631.7402 14580.11
1134.29 4632.2202 14581.31
1136.77 4625.0698 14568.97
1137.59 4615.0698 14535.15
1141.0601 4612.02 14531.01
1143.02 4606.6699 14521.29
1144.08 4599.6299 14510.61
1147.9399 4598.1899 14509.18
1149.91 4589.25 14465.25
1152.5699 4584.9502 14456.83
1154.65 4582.04 14459.17
1156.6899 4577.1802 14450.97
1159.84 4573 14445.62
1162.3 4568 14437.33
1163.75 4559.0498 14409.54
1165.5601 4555.23 14404.19
1167.34 4547.6499 14380.77
1170.3 4542.9199 14338.68
1173.0699 4539.2598 14329.94
1176.6899 4528.1602 14309.17
1179.89 4526.21 14317.51
1181.7 4517.2002 14294.54
1183.39 4509.5098 14282.31
1188.02 4504.3101 14245.07
1190.1 4498.1699 14230.84
1195.34 4490.1201 14208.86
1094.36 4654.1899 14606.3
1099.79 4647.2598 14587.16
1113.83 4660.71 14620.43
1119.98 4658.7798 14628.57
1124.5699 4650.3999 14616.47
1126.86 4642.3501 14565.82
1129.87 4639.2202 14563.43
1131.13 4630.8501 14541.9
1133.73 4629.9399 14538.72
1135.97 4621.8398 14523.45
1138.72 4617.73 14508.54
1140.72 4610.6401 14491.38
1142.85 4605.9702 14481.44
1144.54 4601.48 14481.16
1148.26 4597.6099 14472.41
1150.37 4591.0498 14435.81
1152.91 4586.27 14425.87
1154.0601 4579.6802 14416.61
1157.26 4577.5601 14401.04
1159.8199 4572.9302 14410.3
1161.47 4564.73 14391.93
1164.6 4562.4102 14382.74
1166.13 4557.4502 14376.19
1168.08 4550.5298 14352.55
1170.39 4543.25 14304.9
1172.3199 4536.3501 14285.99
1177.6 4531.6602 14285.46
1180.11 4525.2798 14261.6
1181.66 4517.0298 14259.25
1184.84 4515.0298 14262.77
1092.47 4664.23 14601.66
1097.41 4667.1699 14611.51
1105.72 4670.3501 14624.39
1107.53 4666.0298 14617.53
1115.61 4668.1401 14608.24
1117.47 4662.1001 14594.03
1120.11 4657.3398 14588.92
1121.9 4653 14582.07
1124.35 4647.54 14572.36
1126.64 4641.4199 14527.62
1129.3101 4636.8901 14520.85
1131.46 4632.21 14510.92
1133.49 4628.9902 14500.52
1135.97 4621.8301 14488.19
1139.05 4619.0601 14477.57
1140.9301 4611.48 14458.89
1142.9399 4606.3501 14447.53
1144.6899 4600.21 14423.67
1147.51 4594.6099 14409.23
1149.9301 4589.3101 14393.04
1152.54 4584.79 14386.27
1155.22 4582.46 14388.38
1156.86 4575.98 14377.47
1159.3199 4570.98 14369.18
1161.4 4562.6699 14350.81
1164.8101 4563.21 14350.37
1167.53 4546.5801 14305.65
1175.46 4534.1201 14286.44
1174.5699 4530.7002 14241.08
1177.14 4528.1099 14240
1179.88 4524.3799 14242.65
1184.79 4514.8701 14227.58
1076.05 4693.27 14608
1094.25 4681.9102 14619.87
1100.16 4676.8501 14606.63
1104.66 4681.8901 14622.36
1108.25 4681.04 14622.36
1112.83 4674.3701 14612.88
1114.61 4663.96 14559.86
1118.47 4664.2798 14565.88
1120 4656.8701 14552.13
1121.86 4652.8501 14527.49
1124.6899 4648.96 14541.46
1126.0601 4639.0298 14485.05
1128.77 4634.6899 14476.54
1132 4632.48 14477
1134.15 4629.73 14468.12
1135.49 4619.8901 14447.06
1138.16 4615.4702 14428.99
1141.02 4611.8599 14425.08
1142.9 4604.2998 14406.5
1144.25 4598.4302 14401.85
1147.52 4594.6602 14393.11
1150.33 4589.04 14357.72
1153.16 4585.4199 14353.81
1156.9301 4576.2798 14343.58
1159.55 4570.0298 14313.25
1160.53 4559.2598 14305.34
1164.84 4561.5298 14310.69
1168.0699 4548.6899 14277.57
1170.86 4545.1001 14273.75
1172.75 4536.23 14249.05
1082.42 4706.5498 14620.95
1086.17 4694.04 14605.42
1091.8199 4699.9702 14612.68
1096.04 4703.8101 14648.09
1099.04 4702.3901 14648.32
1099.89 4693.8599 14623.72
1103.77 4692.1899 14619.12
1106.1801 4686.2998 14582.29
1108.22 4680.8901 14567.76
1112.8199 4672.3599 14536.45
1112.61 4673.4399 14574.66
1115.53 4665.8701 14528.64
1120.3199 4658.21 14521.15
1121.33 4650.6499 14504.22
1123.89 4645.6401 14495.95
1126.64 4639.48 14449.48
1129.42 4635.3999 14444.14
1131.5601 4630.71 14434.21
1133.9399 4628.8799 14428.19
1136.41 4621.71 14415.87
1139.37 4618.46 14403.83
1141.66 4612.5298 14392.7
1143.09 4605.0698 14374.12
1145.0699 4601.73 14375.03
1147.72 4595.4399 14360.73
1150.63 4590.23 14326.78
1153.58 4587.1001 14324.39
1157.3199 4575.9902 14308.37
1159.37 4569.3501 14292.63
1160.72 4559.9702 14272.99
1164.01 4558.29 14247.57
1167.54 4546.6201 14236.58
1070.13 4717.2998 14623.23
1075.34 4706.7798 14600.44
1079.51 4708.3799 14617.31
1084.98 4717.71 14620.32
1088.65 4719.1602 14638.85
1090.5 4710.6699 14622.18
1093.6899 4708.0298 14621.21
1096.13 4702.1602 14589.21
1098.3199 4699.3301 14601.13
1101.1899 4699.4199 14605.73
1103.83 4692.46 14565.95
1106.15 4686.1602 14563.06
1107.92 4679.6099 14547.34
1110.34 4675.8599 14540.36
1115.4 4665.3101 14491.86
1117.37 4659.6899 14479.09
1120.85 4648.6699 14463.09
1124.65 4646.8101 14464.97
1126.9399 4640.71 14418.51
1128.8101 4632.9102 14401.6
1131.0699 4628.7002 14393.19
1133.9 4628.7202 14392.96
1136.25 4621.0601 14379.12
1138.51 4615 14358.35
1141.26 4610.9302 14353.01
1142.58 4603 14333.02
1143.98 4597.3198 14326.62
1148.16 4595.3101 14323.77
1149.29 4584.8799 14275.62
1152.23 4581.73 14273.13
1157.14 4575.2798 14271.65
1159.3 4569.0801 14257.34
1161.49 4561.1899 14240.42
1072.35 4727.0601 14618.23
1075.71 4725.0898 14617.04
1080.28 4726.3101 14626
1082.72 4722.3599 14625.41
1087.25 4725.52 14609.62
1089.1899 4721.4702 14610.79
1092.23 4718.1401 14610.05
1094.9301 4713.3398 14600.13
1096.09 4701.98 14569.89
1098.78 4699.25 14549.71
1100.79 4697.71 14562.91
1104.36 4692.6802 14548.25
1105.79 4684.6602 14523.34
1108.39 4679.6099 14510.33
1111.05 4678.8301 14495.95
1112.51 4671.0601 14495.08
1115.37 4665.1802 14456.62
1117.22 4659.0698 14442.32
1121.87 4650.9399 14433.31
1124.55 4646.4199 14410.43
1127.01 4640.98 14384.7
1128.76 4632.7202 14366.37
1130.5601 4626.6099 14352.08
1133.73 4628.0298 14356.21
1135.62 4618.5 14336.59
1138.11 4613.3701 14318.76
1141.02 4609.96 14313.2
1142.4 4602.27 14296.29
1145.52 4601.6299 14305.83
1147.63 4593.2002 14282.67
1150.03 4587.8398 14250.49
1152.42 4580.5898 14233.35
1154.61 4578.2002 14237.1
1053.04 4736.5498 14600.55
1074.51 4736.6099 14610.24
1078.05 4735.3501 14613.55
1082.3 4735.1499 14618.15
1084.21 4728.8599 14610.35
1087.23 4725.4199 14574.25
1089.11 4721.1401 14572.33
1092.04 4717.3198 14570.09
1095.14 4712.2202 14561.91
1097.8199 4709.3901 14557.78
1099.0699 4700.48 14534.86
1101.01 4696.6001 14508.57
1103.67 4689.73 14504.16
1105.3199 4680.6602 14476.41
1107.58 4676.1699 14464.83
1112.59 4671.3799 14461.25
1115.09 4664.02 14418.34
1117.39 4657.8301 14404.14
1121.6 4649.7998 14395.13
1124.5 4646.1899 14391.23
1126.26 4637.9302 14340.75
1128.8 4630.9302 14326.69
1133.42 4624.8301 14312.17
1136.23 4619.0601 14304.22
1137.6899 4611.6602 14279.1
1141.51 4610.0098 14279.33
1144.99 4599.5 14264.84
1147.9 4594.29 14251.74
1052.28 4750.3599 14600.86
1056.51 4752.1699 14611.24
1068.1 4754.79 14628.84
1074.42 4748.8701 14611.01
1077.83 4749.1099 14613.95
1079.63 4742.2998 14599.9
1081.9 4733.3799 14575.33
1085.24 4731.29 14564.48
1087.03 4724.5601 14534.38
1088.97 4720.5298 14535.55
1091.8101 4714.27 14526.09
1094.78 4710.6602 14522.19
1096.47 4703.6099 14505.06
1099.47 4702.2002 14505.29
1101.08 4696.8901 14490.87
1102.75 4685.8198 14457.33
1106.28 4684.7002 14454.16
1108.2 4678.79 14438.22
1110.5699 4674.8198 14432.9
1113.04 4671.27 14408.14
1115.26 4662.7402 14380.17
1118.11 4660.8501 14378.97
1122.1 4651.9102 14367.12
1124.21 4645.0098 14353.06
1128.61 4630.1499 14289.96
1133.11 4623.5698 14274.03
1135.6899 4616.8501 14263.14
1137.76 4610.02 14237.88
1141.54 4610.1499 14245.55
1048.99 4770.1499 14612.36
1050.8 4760.9502 14595.93
1056.16 4765.71 14613.29
1070.62 4766.0098 14628.27
1072.29 4756.3799 14594.28
1074.83 4750.6499 14581.52
1077.26 4746.6201 14571.37
1080.16 4742.5498 14566.05
1082.62 4736.5298 14550.11
1085.14 4730.8701 14546.91
1087.55 4724.7202 14500.45
1089.38 4720.2402 14500.19
1091.76 4714.0801 14490.74
1094.41 4709.0801 14482.57
1097.1 4704.2598 14472.65
1098.66 4698.73 14459.89
1101.24 4697.6001 14458.37
1103.03 4687 14426.36
1106.49 4685.6201 14420.11
1108.59 4678.46 14402.99
1110.0601 4672.6899 14391.78
1112.3 4668.1602 14348.06
1115.79 4664.98 14350.4
1117.59 4658.6699 14337.87
1119.67 4651.6001 14325.56
1121.34 4646.79 14317.29
1124.24 4643.1699 14313.39
1126.67 4637.6699 14287.67
1129.14 4632.3198 14260.22
1133.48 4625.1001 14244.61
1037.62 4784 14619.92
1056.34 4783.8701 14631.49
1059.84 4782.3198 14626.89
1062.58 4777.3198 14618.73
1064.84 4772.3599 14605.74
1066.92 4766.6299 14588.06
1069.63 4761.6201 14579.9
1073.03 4757.54 14563.27
1074.9399 4751.1499 14545.91
1077.12 4745.9702 14534.58
1080.71 4744.9302 14536.23
1082.8101 4735.2998 14511.91
1085.15 4730.8901 14509.9
1087.38 4724.0098 14463.68
1090.09 4723.3198 14474.99
1091.72 4713.8701 14455.48
1094.25 4708.3701 14445.8
1096.8199 4703.0801 14434.46
1098.72 4696.9502 14420.19
1101.08 4694.8901 14415.82
1104.63 4691.8101 14406.96
1105.2 4680.1499 14368.85
1108.97 4680.0498 14373.45
1110.6 4674.9702 14362.11
1115.38 4663.25 14310.82
1117.55 4656.5298 14295.12
1119.47 4650.7798 14288.83
1121.37 4646.9199 14283.51
1123.7 4640.96 14272.39
1126.73 4637.8999 14236.14
1026.6801 4802.4102 14617.93
1029.98 4797.5801 14612.85
1033.49 4798.25 14612.38
1039.54 4792.8501 14612.04
1052.03 4797.1201 14616.18
1054.7 4793.8901 14615.46
1057.5601 4789.4199 14613.55
1060.4399 4785.0098 14600.24
1062.96 4779.0298 14589.14
1064.6899 4771.71 14568.95
1066.98 4766.9199 14554.21
1070.41 4762.96 14547.24
1072.34 4754.5 14519.28
1075.02 4749.3901 14506.19
1077.0601 4745.73 14499.22
1079.79 4740.9102 14489.31
1082 4731.73 14466.41
1085.66 4731.04 14476.07
1087.21 4723.25 14426.92
1089.04 4718.7998 14426.66
1091.98 4715 14424.51
1094.74 4708.4399 14411.89
1097.02 4703.9199 14400.32
1098.8 4697.3101 14384.63
1101.28 4695.75 14381.78
1103.38 4686.4902 14354.06
1106.46 4683.4702 14345.1
1108.71 4678.9502 14333.54
1109.29 4669.4302 14310.86
1112.83 4668.3999 14312.61
1114.72 4658.5 14262.53
1117.8 4657.5601 14264.18
1119.99 4652.9302 14259.09
1121.67 4648.1401 14250.92
1124.0601 4642.4399 14242.88
1022.1 4814.8501 14614.16
1033.15 4812.3398 14620.64
1043.41 4808.46 14622.77
1052.72 4800.27 14591.03
1055.0699 4795.6001 14585.86
1057.42 4788.75 14576.76
1060.12 4781.3901 14554.82
1062.71 4777.8799 14550.93
1064.85 4772.4102 14536.42
1067.35 4768.5801 14524.63
1070.58 4763.6802 14514.82
1072.71 4756.1201 14489.7
1074.96 4749.1401 14470.94
1077.24 4744.4102 14461.03
1080.51 4741.9502 14458.33
1081.39 4729.0601 14423.87
1084.29 4725.0698 14423.38
1087.03 4722.4702 14390.26
1088.7 4715.2402 14379.53
1092.61 4715.71 14390.37
1094.8199 4708.7998 14376.42
1096.5 4701.7202 14359.31
1098.5 4696.0298 14346.46
1100.98 4694.46 14343.62
1103.29 4686.1201 14318.74
1105.9301 4681.2202 14304.1
1108.5 4678.0898 14296.81
1110.3199 4671.7598 14284.28
1112.05 4665.1401 14268.59
1018.75 4831 14621.94
1022.15 4828.7798 14617.58
1025.4 4830.3799 14626.53
1029.73 4832.52 14639.98
1033.63 4832.6201 14638.09
1038.79 4820.6001 14611.08
1041.16 4818.1401 14610.04
1045.02 4815.8599 14610.51
1047.08 4807.5801 14597.06
1049.95 4803.0298 14590.33
1052.5699 4799.5498 14554.24
1055.34 4796.8101 14554.94
1056.84 4786.1299 14534.19
1060.59 4783.4902 14526.66
1062.83 4776.29 14509.55
1065.36 4772.52 14502.58
1067.59 4767.46 14484.77
1069.98 4761.0098 14472.26
1072.61 4753.5498 14445.5
1073.8101 4744.04 14421.1
1076.99 4743.3198 14421.1
1079.5699 4737.8398 14411.52
1082.42 4731.4702 14397.26
1084.64 4726.6201 14393.83
1087.55 4722.6499 14354.71
1088.83 4715.8101 14347.15
1092.09 4713.46 14349.36
1094.73 4708.4199 14341.11
1096.63 4700.25 14321.06
1098.3 4695.1602 14309.73
1100.89 4694.0601 14308.31
1103.42 4684.6499 14280.59
1105.49 4679.3599 14264.44
1108.1801 4674.71 14252.88
1109.99 4670.3799 14246.14
1112.4 4666.6099 14239.17
1008.53 4835.3101 14605.07
1020.47 4836.8599 14605.31
1025.95 4846.71 14637.14
1027.78 4841.6099 14625.82
1032.53 4843.3999 14636.19
1034.7 4837.6499 14618.62
1037.8101 4831.8301 14610.61
1039.5 4823.9102 14584.18
1042.13 4820.4102 14580.3
1045.59 4818.4902 14583.85
1047.34 4808.7598 14566.04
1050.67 4804.1099 14559.31
1052.86 4798.6802 14517.46
1055.1 4793.54 14510.86
1057.38 4786.3999 14498.59
1060.3101 4782.2402 14488.46
1063.3 4778.3799 14481.49
1065.33 4772.4102 14465.58
1067.1899 4765.6802 14445.07
1070.4301 4763.04 14444.12
1072.2 4751.7402 14405.81
1074.51 4745.0298 14390.22
1077.45 4745.3398 14393.06
1079.05 4735.5498 14370.41
1081.9399 4729.3799 14354.5
1085.24 4727.1499 14327.64
1087.78 4723.6401 14323.75
1089.72 4719.6802 14324.91
1091.66 4711.6001 14309.69
1094.86 4706.9399 14302.95
1096.09 4697.9302 14280.07
1098.87 4695.5601 14277.36
1100.9 4692.1001 14268.74
1103.2 4683.71 14243.88
1002.39 4857.1001 14616
1005.77 4854.6699 14613.31
1007.95 4848.7998 14602.22
1011.28 4848.48 14610.23
1013.05 4840.7202 14598.11
1015.92 4835.9302 14588.31
1024.16 4854.3301 14623.44
1026.91 4851.2598 14616.24
1029.0601 4847.6001 14609.28
1031.86 4840.2798 14592.19
1035.2 4837.75 14584.66
1037.34 4829.6299 14569.46
1039.8 4823.04 14547.39
1042.28 4821.0801 14547.87
1045.58 4816.2202 14542.8
1047.84 4808.8301 14532.09
1050.65 4804.02 14522.29
1053.14 4799.9502 14484.71
1055.49 4795.3101 14479.63
1057.3 4786.0498 14463.24
1059.8101 4779.9702 14447.33
1062.9 4776.5698 14441.79
1064.72 4769.6602 14423.04
1066.5699 4762.9102 14402.53
1069.63 4757.3198 14392.96
1072.76 4754.2002 14379.19
1075.0601 4747.4502 14363.51
1077.0601 4741.5 14347.7
1079.61 4737.9902 14343.81
1081.73 4728.46 14317.76
1087.23 4721.27 14282.66
1088.73 4715.3901 14278.04
1091.4399 4710.6499 14272.96
1095.09 4707.8999 14272.01
1096.87 4701.25 14256.33
1098.87 4695.5601 14243.58
1101.23 4693.5 14239.22
1008.31 4866.9199 14615.6
1013.2 4871.7002 14634.59
1015.17 4867.1299 14629.53
1018.18 4862.9199 14630.72
1024.71 4856.9502 14596.76
1028.03 4854.2402 14590.99
1030.17 4850.5698 14584.03
1032.41 4842.8301 14565.43
1035.14 4837.46 14549.38
1037.79 4831.7202 14541.38
1040.03 4824.1401 14516.38
1041.79 4818.8198 14506.73
1045.71 4816.8198 14510.28
1047.71 4808.2202 14493.66
1050.89 4805.1201 14491.29
1052.85 4798.6299 14446.51
1054.5699 4791.1099 14432.83
1057.22 4785.6802 14428
1060.33 4780.1699 14411.85
1062.49 4774.75 14402.19
1064.73 4769.73 14389.22
1066.79 4763.9199 14371.56
1070.0601 4759.2598 14364.83
1072.12 4751.3599 14336.67
1074.25 4743.8501 14316.51
1077.8199 4744.8398 14323.93
1080.4301 4739.52 14312.62
1082.05 4729.8701 14288.23
1084.85 4725.4199 14286.32
1087.45 4720.1602 14245.94
1089.5 4716.6699 14248.52
996.94 4863.6499 14594.87
1011.24 4881.0698 14623.57
1014.44 4877.6802 14618.04
1016.51 4873.5801 14614.4
1019.58 4869.5801 14613.94
1022.05 4862.8101 14598.27
1025.46 4858.1699 14564.08
1027.45 4851.5 14548.42
1029.89 4849.2798 14545.82
1032.13 4841.52 14527.22
1035.62 4839.7002 14519.55
1037.65 4831.0898 14502.94
1039.95 4823.75 14481.03
1041.92 4819.3999 14474.31
1045.36 4815.2202 14469.01
1047.63 4807.8599 14458.4
1051.05 4803.6802 14453.1
1052.58 4795.2202 14402.56
1055.03 4791.04 14398.91
1057.16 4783.21 14386.89
1059.91 4778.2598 14372.17
1062.74 4773.71 14365.44
1064.76 4767.71 14349.54
1066.97 4762.5801 14331.75
1070 4758.9702 14327.86
1073 4753.1699 14308.65
1074.23 4743.7998 14282.62
1076.72 4740.02 14275.66
1079.4399 4735.1602 14265.76
1081.62 4725.8999 14242.9
1084.0699 4722.0298 14242.41
1001.37 4885.2402 14622.86
1003.78 4882.73 14617.09
1009.73 4890.29 14612.46
1012.54 4884.96 14601.16
1014.77 4879.2598 14588.43
1017.62 4876.52 14589.15
1019.91 4871.1699 14584.33
1022.49 4864.8599 14570.09
1025.48 4858.29 14530.23
1027.98 4854.0098 14521.76
1029.54 4847.6299 14504.44
1032.8199 4842.4702 14496.21
1035.4301 4838.8101 14482.77
1038.03 4830.5601 14467.59
1039.85 4823.3101 14445.68
1041.87 4816.9302 14433.19
1045.16 4814.2998 14432.24
1047.5699 4805.3901 14417.29
1050.74 4802.2598 14414.82
1052.47 4794.7202 14367.23
1055.24 4791.9902 14367.94
1057.0601 4782.79 14333.78
1059.58 4776.7998 14334.01
1062.42 4772.25 14327.28
1064.54 4766.7202 14312.8
1066.54 4760.6299 14292.18
1069.36 4754.02 14279.58
1073.03 4753.2798 14273.11
1074.67 4743.6299 14248.83
1076.85 4740.5801 14241.55
973.78998 4910.8799 14620.89
976.96997 4909.6201 14625.96
978.07001 4895.54 14599.96
983.84998 4904.8901 14625.5
985.12 4894.21 14604.79
989.59998 4901.8599 14629.3
995.88 4911.1401 14627.45
1004.16 4898.8901 14629.3
1006.58 4896.3799 14623.53
1010.1 4892.0601 14581.19
1012.71 4885.77 14567.05
1015.26 4879.25 14554.47
1017.03 4873.73 14546.58
1020.3 4870.6899 14548.96
1022.51 4864.98 14536.23
1025.29 4857.3901 14493.45
1027.62 4852.3198 14480.39
1030.0699 4850.1001 14477.79
1032.87 4842.73 14460.72
1035.0699 4834.8501 14437.3
1037.51 4828.1602 14426.47
1039.84 4820.9902 14402.91
1042.4301 4819.5498 14404.9
1045.1 4811.7798 14391.13
1047.36 4804.4199 14380.54
1050.11 4799.3599 14372.3
1052.67 4795.6299 14336.26
1054.49 4788.5698 14324.01
1056.97 4782.3701 14314.59
1059.92 4776.1401 14298.69
1062.12 4770.9102 14287.39
1064.03 4764.4102 14270.07
1066.62 4760.9902 14259.71
1069.88 4756.3301 14252.99
975.73999 4920.71 14615.87
977.70001 4913.3301 14600.46
988.07001 4923.5 14628.58
989.65997 4914.3101 14628.39
991.09998 4909.29 14617.09
996.59003 4914.6401 14603.61
999.62 4910.2598 14595.14
1002.33 4906.6802 14613.92
1004.86 4899.9102 14598.26
1006.92 4895.6499 14585.07
1009.91 4891.1602 14544.4
1012.82 4886.3301 14534.61
1014.67 4876.3999 14511.92
1017.45 4875.71 14518.4
1019.83 4868.4702 14490.11
1022.28 4861.5601 14492.26
1024.6801 4854.4902 14450.91
1028.09 4852.2402 14446.56
1029.71 4846.1099 14432.32
1031.9399 4838.3599 14413.83
1035.0699 4834.8398 14403.48
1037.51 4828.1499 14392.65
1040.04 4821.9102 14371.93
1042.21 4818.54 14368.15
1045.08 4811.71 14357.23
1047.45 4804.8599 14348.14
1050 4798.8599 14337.07
1052.38 4794.29 14296.46
1054.3 4787.7002 14285.63
1056.73 4781.2998 14277.86
1060.54 4778.9302 14273.51
962.40997 4927.7402 14607.93
967 4931.1001 14617.81
970.37 4928.29 14618.54
973.69 4925.1899 14616.08
982.84003 4936.6802 14635.81
985.40997 4929.8398 14631.49
991.73999 4924.6401 14624.78
997.66998 4917.5298 14578.34
1000.04 4912.2798 14567.05
1002.43 4904.77 14574.28
1004.88 4900.0098 14564.4
1007.14 4896.71 14554.04
1010.18 4890.1201 14507.61
1012.12 4882.9199 14490.55
1014.91 4877.5801 14479.25
1017.86 4875.3701 14481.48
1019.5 4866.8901 14469.63
1022.29 4861.6299 14440.53
1025.03 4853.8599 14415.57
1027.5699 4849.7598 14405.45
1029.29 4844.1401 14392.73
1032.34 4840.2202 14385.69
1034.95 4834.2798 14368.15
1037.75 4827 14355.9
1039.7 4820.3701 14333.77
1041.87 4816.9702 14329.9
1045.0601 4811.6299 14323.42
1047.5699 4805.4199 14314.01
1049.84 4795.9199 14292.82
1052.59 4793.0698 14259.73
1054.83 4787.9399 14253.25
1057.16 4781.0601 14244.08
963.04999 4948.6499 14631.5
965.98999 4946.0498 14625.73
969.59003 4944.3198 14622.8
973.45001 4941.4199 14623.52
980.89001 4944.1699 14617.33
983.64001 4940.6699 14613.47
986.33002 4934.4502 14592.75
989.97998 4932.98 14604.32
994.45001 4923.4399 14591.06
997.38 4916.1001 14540.13
999.65002 4910.3701 14527.42
1002.73 4906.2598 14544.67
1005.09 4901.02 14533.38
1007.45 4898.2202 14524.53
1010.18 4890.1099 14473.77
1012.38 4881.8198 14453.78
1014.7 4876.5698 14442.48
1017.14 4871.8999 14437.44
1019.43 4866.5601 14432.62
1021.9 4859.75 14416.98
1024.8101 4852.7998 14378.81
1027.4399 4849.1802 14370.12
1028.96 4842.5801 14354.57
1031.85 4835.6602 14338.92
1034.61 4832.71 14329.99
1037.3101 4824.96 14316.33
1039.26 4818.2998 14294.21
1041.46 4812.8599 14284.56
1045.0699 4811.6699 14287.87
1047.48 4802.77 14273.03
1049.8101 4795.7798 14259.03
964.96997 4958.5 14626.45
966.95001 4950.9902 14606.22
972.46997 4956.5 14624.94
977.15002 4960.1899 14626.65
981.60999 4947.8301 14591.82
984.62 4945.5898 14593.97
986.41998 4934.8701 14578.11
989.78998 4932.0498 14567.52
992.25 4927.1802 14564.13
994.75 4924.9702 14561.54
997.71002 4917.7402 14508.87
999.81 4908.7598 14489.13
1003.04 4907.75 14515.17
1005.45 4900.4199 14498.01
1007.11 4894.1899 14479.06
1009.97 4889.0698 14437
1012.56 4882.7202 14422.78
1014.65 4873.9702 14401.47
1017.23 4872.3101 14405.03
1020.29 4868.3501 14404.56
1021.98 4860.1499 14384.57
1024.41 4850.8901 14337.49
1027.21 4848.0601 14333.38
1029.08 4840.8501 14316.32
1032.02 4836.48 14307.95
1034.97 4832.1401 14293.02
1037.73 4826.9102 14286.55
1039.5699 4817.52 14258.9
1041.3199 4812.1699 14249.26
1044.86 4808.46 14245.39
954.65002 4963.8599 14604.25
967.72998 4970.2002 14627.16
970.31 4968.1699 14622.81
973.91998 4963.8901 14612.7
979.65002 4952.8799 14575.63
984.40997 4942.0801 14549.99
987.17999 4936.23 14548.5
989.47998 4928.04 14522.13
994.53003 4921.4502 14517.57
996.79999 4913.2598 14461.99
999.94 4909.3799 14455.05
1002.46 4904.9502 14470.87
1005.38 4900.0698 14461
1006.8 4892.6699 14440.87
1009.34 4886.02 14394.48
1012.58 4882.8101 14387.3
1015.12 4876.25 14374.74
1016.69 4869.73 14363.93
1019.96 4866.7598 14366.4
1022.32 4859.46 14349.34
1024.99 4853.6401 14312.28
1027.16 4845.52 14290.64
1029.28 4841.8198 14283.7
1031.67 4834.8198 14269.81
1034.3 4829 14250.53
1037.26 4824.73 14246.9
965.42999 4978.7002 14622.73
968.69 4975.1201 14607.64
971.07001 4969.54 14593.19
973.82001 4963.3901 14577.32
976.65002 4957.6699 14569.44
981.90002 4949.2598 14528.35
985.17999 4945.9399 14527.56
987.32001 4936.8901 14514.4
989.37 4927.5 14486.76
992.22998 4924.6299 14471.35
994.75 4922.54 14484.8
997.75 4915.5098 14435.33
999.60999 4907.79 14416.87
1002.38 4902.1499 14413.72
1004.96 4898.0298 14421.4
1006.68 4892.0698 14387.75
1010.01 4886.9302 14361.84
1012.09 4878.1201 14340.45
1014.68 4874.1299 14335.17
1017.43 4870.9502 14334.46
1019.42 4864.1499 14325.31
1021.67 4856.3398 14306.84
1024.27 4847.9399 14262.61
1027.11 4845.2998 14256.85
1028.92 4840.1201 14245.56
963.21002 4985.1401 14601.31
968.88 4976.0898 14576.6
971.07001 4969.54 14559.32
974.23999 4965.5298 14547.56
977.72998 4960.6802 14542.52
981.77002 4946.1201 14485.8
984.62 4943.1001 14483.36
986.90002 4934.8198 14474.7
990.14001 4931.3301 14464.45
994.10999 4919.3398 14426.23
999.16998 4905.6401 14377.19
1002.29 4901.6899 14394.52
1004.63 4896.3999 14365.45
1006.98 4893.5498 14374.3
1009.97 4886.7002 14327.94
1012.35 4879.3599 14310.89
1014.02 4870.96 14292.67
1016.25 4865.2998 14284.7
1019.47 4864.4302 14292.92
1021.41 4855.1299 14270.11
963.33002 4985.7998 14567.19
966.69 4982.6802 14564.75
970.60999 4967.1802 14516.53
974.70001 4965.3398 14513.6
977.32001 4958.6099 14502.81
979.53003 4949.7798 14481.42
984.09003 4940.4902 14442.25
987.25 4934.1201 14439.44
990.21997 4929.2998 14423.1
994.21002 4919.8301 14409.85
996.81 4910.8901 14370.68
999.20001 4903.3701 14337.61
1001.84 4899.5098 14354.84
1004.96 4895.6201 14347.91
1007.01 4891.2998 14334.73
1012.09 4878.1099 14274.17
1014.36 4870.27 14255.71
1015.72 4862.75 14241.98
1018.96 4859.6299 14246.1
961.01001 4994.3198 14556.27
963.12 4984.71 14530.4
965.62 4977.1602 14515.03
969.03003 4974.3198 14504.44
970.58002 4967.0298 14482.58
974.09003 4962.25 14471.06
977.01001 4956.9902 14464.62
979.79999 4951.1299 14451.92
981.92999 4946.9702 14454.79
984.44 4939.73 14407
987.31 4934.4102 14406.93
989.59003 4926.1401 14380.58
994.44 4918.5498 14373.1
996.32001 4908.4702 14314.99
998.73999 4901.1099 14297.95
1002.1 4900.7798 14325.37
1004.3 4892.4199 14305.41
1006.85 4890.5498 14299.41
1009.19 4882.9502 14266.25
950.26001 5016.1802 14555.92
952.92999 5009.2598 14546.9
957.28998 4995.6299 14522.16
960.40997 4991.23 14513.72
963 4984.0601 14495.04
966.35999 4978.3901 14485.42
969.33002 4975.8301 14473.18
971.12 4967.2598 14450.15
973.56 4959.5801 14429.95
977.34998 4956.21 14429.27
979.27002 4948.46 14410.82
981.25 4943.5 14409.1
983.98999 4937.5 14367.32
986.57001 4930.73 14363.01
989.23999 4924.4199 14342.42
993.72998 4915.0601 14296.8
994.09003 4916.8301 14334.94
999.17999 4903.27 14271.33
1002.65 4901.0498 14291.24
1005.87 4885.7998 14252.59
946.13 5018.0801 14552.35
949.39001 5011.5698 14509.13
952.62 5005.02 14501.43
955.02002 4999.3799 14493.58
960.46997 4991.5498 14481.29
963.34003 4983.2798 14459.68
966.32001 4978.21 14451.58
968.32001 4970.6699 14424.9
970.59003 4964.5498 14409.05
973.60999 4957.2798 14390.37
976.41998 4951.5098 14382.41
979.12 4947.71 14375.49
981.12 4940.3999 14334.2
984.23999 4938.7402 14337.84
986.56 4930.6499 14327.54
989.28003 4924.5898 14309.94
991.23999 4917.27 14299.39
996.37 4906.2798 14273.77
1002.08 4898.27 14250.27
946.62 5018 14516.74
952.47998 5004.29 14466.07
954.69 4997.6401 14455.29
957.34003 4995.9199 14454.12
960.62 4989.7598 14443.1
963.29999 4983.0498 14425.84
965.78998 4975.48 14410.48
968.27002 4970.4199 14391.07
970.34003 4963.29 14372.3
973.67999 4957.6499 14356.21
976.46002 4951.7202 14350.01
979.72998 4948.3101 14344.5
980.76001 4938.5898 14296.05
983.81 4936.6001 14296.53
986.87 4929.7202 14292.22
988.97998 4920.6899 14266.04
992.08002 4919.02 14269.69
993.70001 4914.8799 14261.25
939.47998 5035.77 14515.93
941.84998 5029.7798 14504.91
946.76001 5018.7798 14485.71
949.77002 5010.9502 14472.11
951.77002 5000.5601 14422.14
954.45001 4996.3799 14418.53
957.28998 4995.6699 14420.28
960 4986.5 14400.59
962.96002 4981.29 14387.67
965.53998 4974.2002 14373.73
968.29999 4968.0098 14351.4
970.17999 4962.4902 14337.07
973.71002 4957.8198 14323.81
976.23999 4950.5801 14311.62
979.16998 4945.48 14303.42
980.89001 4939.2002 14265.08
983.71002 4933.6201 14255.47
986.19 4926.3599 14249.75
932.60999 5044.5801 14497.08
935.28003 5037.3701 14478.42
939.73999 5037.2002 14484.65
941.84003 5029.7002 14469.31
946.81 5019.0298 14453.28
949.90997 5011.6802 14441.1
952.09998 5002.2598 14394.06
954.62 4997.25 14385.87
957.33002 4993.2598 14380.61
960.32001 4988.1899 14372.51
962.63 4979.6201 14347.76
965.70001 4972.46 14333.91
968.22998 4967.6699 14317.59
970.33002 4960.6899 14297.17
973.04999 4954.4502 14281.33
976.73999 4950.6099 14279.23
978.84003 4943.79 14263.63
929.96002 5051.8799 14485.05
932.75 5045.3101 14466.05
935.89001 5037.9902 14447.39
939.03998 5033.4102 14440.72
941.69 5028.9199 14434.05
946.28003 5016.21 14412.18
949.37 5008.8599 14400
949.21002 5007.9902 14364.67
951.73999 4997.79 14348.64
954.73999 4995.3101 14347.71
957.15997 4992.3901 14345.28
960.09003 4986.98 14334.02
963.03998 4979.1602 14313.95
965.42999 4971.0801 14297.18
968.09003 4966.9399 14280.62
970.64001 4962.29 14269.12
974.14001 4957.4502 14257.62
976.35999 4948.6899 14241.1
924.34998 5059.54 14468.2
929.90002 5051.5498 14451.11
932.96997 5046.5098 14436.54
935.27002 5034.6401 14404.88
938.78998 5032.0601 14403.96
941.64001 5025.9702 14392.96
943.14001 5018.0498 14376.2
946.40997 5014.27 14374.02
949.52002 5007.02 14329.44
952.27002 5000.5801 14321.74
954.57001 4994.3901 14312.39
956.60999 4989.5 14304.3
960.48999 4986.4902 14300.21
962.46997 4976.2202 14272.88
965.45001 4971.1499 14264.79
967.90002 4965.98 14245.31
921.90002 5068.1201 14455.59
924.65002 5061.1802 14440.01
927.17999 5053.1001 14416.78
929.41998 5046.25 14401.2
932.15002 5042.0898 14391.12
935.20001 5034.2598 14371.05
938.90997 5030.0801 14365.8
941.28003 5024.0698 14354.8
943.66998 5020.8398 14349.3
946.42999 5014.3799 14341.61
952.46997 5001.6201 14292.17
954.09998 4991.9399 14272.84
957.22998 4992.73 14278.83
959.82001 4983.02 14257.74
918.75 5072.8799 14460.59
921.37 5065.21 14414.49
924.21002 5058.79 14400.42
927.13 5052.8599 14381.19
930 5049.3901 14377.44
932.37 5040.5698 14354.37
935.34003 5035.0098 14338.4
938.64001 5028.6299 14329.06
940.90997 5022.0898 14316.55
943.14001 5018.0298 14293.52
946.38 5014.0898 14306.04
948.89001 5003.7002 14285.21
