ply
format ascii 1.0
comment PCL generated
element vertex 51
property float x
property float y
property float z
element camera 1
property float view_px
property float view_py
property float view_pz
property float x_axisx
property float x_axisy
property float x_axisz
property float y_axisx
property float y_axisy
property float y_axisz
property float z_axisx
property float z_axisy
property float z_axisz
property float focal
property float scalex
property float scaley
property float centerx
property float centery
property int viewportx
property int viewporty
property float k1
property float k2
end_header
21.17 7679.0298 13833.69
10.89 7698.8901 13836.62
16.77 7690.0498 13822.31
16.77 7688.8398 13796.77
4.9899998 7707.8701 13824.64
11.62 7696.8398 13808
16.76 7685.3701 13767.22
-0.92000002 7725.8799 13831.99
5.73 7708.8799 13803.12
11.62 7696.5898 13760.95
-6.8600001 7736.75 13817.2
-0.92000002 7727.0801 13799.93
5.73 7711.3301 13784.22
11.62 7696.0801 13736.83
-12.06 7744.5498 13809.39
-6.8600001 7737.6699 13807.98
-0.92000002 7725.6201 13784.93
5.7399998 7719.1001 13762.45
11.63 7696.9902 13715.33
-12.07 7746.8701 13801.1
-6.1199999 7737.1299 13783.75
-0.92000002 7730.3398 13770.13
-17.299999 7761.2402 13803.46
-11.32 7744.7798 13774.17
-6.1199999 7743.98 13771.18
-0.93000001 7743.98 13771.18
-17.290001 7757.6699 13773.91
-11.33 7754.6802 13768.6
-6.1300001 7754.6099 13766.92
-0.93000001 7756.1401 13769.62
-30.040001 7784.4902 13779.88
-23.280001 7770.6001 13773.73
-17.32 7770.4902 13771.97
-11.35 7765.3701 13764.41
-6.1399999 7766.77 13765.35
-0.93000001 7765.1699 13760.97
-30.030001 7781.5898 13751.65
-23.299999 7778.2402 13764.14
-17.33 7778.1201 13762.37
-11.37 7775.9199 13758.45
-6.1500001 7778.9302 13763.76
-0.93000001 7778.0698 13760.69
-34.57 7794.8398 13770.46
-30.049999 7788.4702 13740.75
-23.32 7783.6001 13750.53
-17.35 7785.7998 13752.86
-11.38 7784.2798 13750.16
-6.1599998 7788.0298 13756.77
-23.34 7792.6602 13741.95
-17.370001 7791.8901 13740.56
-11.39 7791.1602 13739.25
0 0 0 1 0 0 0 1 0 0 0 1 0 0 0 0 0 51 1 0 0
