ply
format ascii 1.0
comment PCL generated
element vertex 252
property float x
property float y
property float z
element camera 1
property float view_px
property float view_py
property float view_pz
property float x_axisx
property float x_axisy
property float x_axisz
property float y_axisx
property float y_axisy
property float y_axisz
property float z_axisx
property float z_axisy
property float z_axisz
property float focal
property float scalex
property float scaley
property float centerx
property float centery
property int viewportx
property int viewporty
property float k1
property float k2
end_header
643.41998 5209.3999 14204.28
649.66998 5206.7002 14203.28
655.67999 5218.1802 14200.5
660.04999 5216.6099 14204.07
648.64001 5222.8901 14179.46
656.41998 5224.0601 14185.18
660.79999 5222.5298 14188.85
665.08002 5224.1299 14194.57
667.90002 5222.3101 14203.21
642.63 5231.9199 14168.3
646.65002 5231.4199 14168.3
653.32001 5231.8901 14175.93
657.28998 5231.0298 14172.87
661.88 5231.0601 14180.75
665.56 5227.9302 14173.63
669.15002 5228.1602 14187.98
672.91998 5229.6899 14195.46
677.37 5232.6001 14185.96
682.12 5233.8398 14195.09
689.02002 5231.9302 14198.66
692.63 5228.3398 14196.61
659.27002 5242.6699 14173.38
663.41998 5239.1499 14169.58
666.90997 5238.5498 14171.24
670.13 5235.7998 14175.41
682.82001 5239.1802 14178.36
686.85999 5238.7798 14184.93
694.27002 5240.7202 14196.87
698.92999 5241.1602 14199.68
703.39001 5243.9199 14206.55
709.57001 5240.4102 14199.43
713.53003 5239.4302 14204.5
722.52002 5245.2402 14200.3
726.10999 5245.27 14201.71
656.21997 5251.0098 14165.52
660.48999 5252.3799 14166.42
664.28998 5246.0698 14157.16
668.70001 5248.5898 14167.44
674.77002 5244.1099 14172.12
680.09998 5249.7202 14168.08
684 5248.25 14171.75
691.37 5245.9102 14172.25
694.96997 5246.0498 14180.14
699.52002 5245.6099 14178.48
714.62 5247.4399 14194.98
723.85999 5254.9502 14193.33
727.44 5254.8701 14196.49
729.98999 5251.0698 14197.76
666.03998 5259.8901 14163.38
670.14001 5259.8901 14164.78
676.51001 5253.6001 14166.81
681.47998 5260.3701 14165.77
685.25 5257.8301 14166.53
688.88 5254.2002 14164.39
692.70001 5256.0098 14168.45
696.32001 5252.3799 14166.31
700.37 5251.9902 14164.65
705.47998 5259.4902 14169.73
709.15002 5260.0898 14172.63
715.37 5252.9102 14176.58
719.83002 5255.5601 14185.2
724.73999 5261.3398 14179.49
728.04999 5259.29 14175.28
731.54999 5258.5898 14185.08
735.82001 5259.7202 14195.86
739.14001 5257.7202 14198.03
743.16998 5257.1499 14198.03
666.98999 5267.3398 14152.44
677.83002 5263.8501 14161.34
682.51001 5268.3501 14156.24
687.21002 5268.9102 14165.53
690.91998 5265.8301 14164.89
693.82001 5264.5098 14160.32
697.87 5264.0698 14166.8
702.92999 5271.2002 14168.81
706.27002 5265.4199 14169.19
709.78998 5264.7998 14170.85
721.14001 5261.3501 14169.96
726.34003 5269.25 14169.96
732.52002 5265.5298 14172.74
736.59003 5265.1802 14177.46
739.73999 5261.9902 14178.48
744.29999 5265.1401 14188.5
748.03998 5266.1001 14194.46
751.79999 5267.1899 14198.77
755.78003 5266.2002 14195.62
678.84998 5271.8301 14151.81
688.40997 5278.0698 14157.14
691.82001 5272.7202 14152.45
695.29999 5275.6802 14159.4
704.14001 5276.3599 14168.43
707.98999 5274.3701 14162.47
711.31 5272.29 14158.16
718.33002 5270.9302 14163.23
727.51001 5277.7402 14161.83
737.70001 5273.1499 14167.92
741.52002 5270.98 14171.84
745.48999 5269.8901 14170.44
749.03998 5273.1499 14180.36
752.87 5274.6499 14187.82
757.35999 5273.6001 14184.67
765.33002 5275.1499 14191.78
768.58002 5276.1499 14197.75
773.53998 5281.8198 14185.65
777.34998 5279.5698 14189.48
781.73999 5281.3501 14200.01
785.08002 5275.9302 14195.33
793.59003 5280.96 14199.5
685.45001 5287 14142.62
689.23999 5284.46 14143.39
692.85999 5280.6802 14142.92
696.78003 5283.0098 14148.37
700.07001 5280.6802 14147.48
704.98999 5282.7202 14154.59
709.13 5282.8501 14154.33
712.96002 5284.5098 14160.04
716 5284.1001 14160.04
724.48999 5285.8398 14157.36
729.27002 5290.5098 14165.2
735.40002 5286.23 14166.48
739.26001 5284.3198 14166.99
743.69 5286.4399 14165.97
758.96997 5284.8101 14167.37
762.31 5279.2598 14172.57
766.72998 5284.79 14170.27
774.70001 5289.7798 14176.1
778.52002 5287.5298 14179.93
782.96002 5286.0698 14181.94
786.96997 5288.6699 14198.6
789.40002 5284.0898 14193.65
795.03003 5290.5298 14194.25
799.07001 5289.77 14195.91
803.06 5288.7402 14200.99
806.44 5287.1201 14198.08
810.04999 5286.98 14201.24
697.98999 5292.2002 14140.07
701.34003 5290.25 14142.23
706 5290.2998 14141.98
713.73999 5290.3301 14144.79
716.71997 5289.3901 14143.39
721.59003 5294.8599 14149.21
725.45001 5292.8301 14159.61
737.01001 5294.1099 14156.93
740.72998 5291.1201 14154.54
744.45001 5291.8301 14163.92
752.71002 5295.2998 14163.78
755.14001 5290.5801 14168.73
759.65002 5289.52 14165.58
764.07001 5291.48 14174.44
771.09003 5289.8901 14172.94
776.37 5297.6499 14166.55
783.97998 5292.9399 14169.49
786.96997 5288.6802 14167.71
791.66998 5295.77 14177.84
796.25 5298.6401 14183.03
799.78998 5294.5498 14177.84
804.03003 5295.1001 14187.13
807.90002 5296.6899 14192.83
811.42999 5295.9902 14194.49
816.04999 5295.5601 14199.31
820.98999 5297.27 14201.7
824.27002 5294.96 14199.05
832.04999 5298.1499 14202.33
702.90997 5298.1201 14132.69
706.77002 5296.1099 14126.73
711.28003 5298.8901 14133.58
715.03998 5299.8901 14139.54
718.81 5301.02 14143.84
722.02002 5298 14143.21
726.17999 5298.1099 14142.95
738.28003 5303.25 14148.53
742.37 5302.8101 14155
746.02002 5302.96 14162.88
753.54999 5301.21 14163.13
757.78003 5305.3999 14161.34
761.19 5300.27 14161.47
765.90997 5304.23 14161.34
773.27002 5304.8101 14165.64
777.60999 5306.1201 14158.39
781.59998 5304.9702 14165.13
785.33002 5302.0801 14161.08
788.71002 5300.3398 14168.07
792.13 5298.8799 14171.74
797.63 5304.3799 14167.77
801.07001 5303.02 14169.68
805.33002 5300.3101 14170.46
812.34998 5298.5498 14170.71
817.13 5302.5801 14185.18
821.72998 5302.0098 14183.53
826.42999 5305.5098 14196.59
829.40002 5304.5098 14195.19
838.77002 5311.0298 14195.52
751.41998 5308.1201 14147.61
762.71002 5310.8799 14159.02
766.52002 5308.4199 14158.13
770.85999 5309.7002 14159.02
774.13 5310.7202 14164.98
783.26001 5316.2402 14162.41
790.88 5311.4302 14167.11
793.56 5308.4302 14166.48
799.06 5313.8901 14162.41
803.01001 5312.4902 14164.42
806.96002 5311.0498 14166.34
813.89001 5308.6401 14166.85
818.45001 5307.7798 14168.51
822.79999 5308.9102 14171.15
826.66998 5307.0498 14169.92
830.06 5308.71 14175.62
834.40002 5309.7998 14186.4
843.59003 5315.0801 14185.48
848.03003 5316.7202 14197.76
775.44 5319.7402 14158.32
779.79999 5321.02 14151.07
804.46997 5322.1401 14157.4
808.57001 5321.6499 14163.88
815.46002 5318.8501 14161.33
820.08002 5318.3799 14166.05
824.52002 5320.0298 14170.09
828.33002 5317.6699 14167.54
831.46997 5317.7202 14168.95
835.22998 5315.0698 14169.72
840.20001 5320.0601 14172.48
845.10999 5321.3501 14171.7
848.87 5318.6802 14172.48
856.69 5321.8198 14183.88
796.10999 5325.48 14148.49
805.84003 5331.1499 14150.72
810.03003 5331.2002 14158.6
817.23999 5330.4902 14161.66
821.89001 5330.0601 14166.48
826.42999 5328.9702 14163.41
830.14001 5329.3198 14167.88
833.38 5326.6201 14162.18
842.95001 5334.1802 14165.29
846.81 5332.0801 14167.56
850.72998 5330.3398 14172.8
853.16998 5325.96 14172.69
827.76001 5337.5498 14153.57
831.63 5338.8599 14162.59
834.97998 5336.8198 14156.64
838.58002 5336.3901 14163.11
844.40002 5343.3198 14156.94
848.32001 5341.5801 14162.18
851.90997 5337.7202 14161.82
833.31 5346.2998 14149.95
836.71997 5347.9702 14155.64
850.01001 5352.1899 14159.79
862.06 5351.8999 14155.85
866.38 5352.5801 14163.47
855.04999 5357.4399 14150.97
857.65997 5353.98 14155.33
873.03998 5367.6001 14146.02
0 0 0 1 0 0 0 1 0 0 0 1 0 0 0 0 0 252 1 0 0
