ply
format ascii 1.0
comment PCL generated
element vertex 191
property float x
property float y
property float z
element camera 1
property float view_px
property float view_py
property float view_pz
property float x_axisx
property float x_axisy
property float x_axisz
property float y_axisx
property float y_axisy
property float y_axisz
property float z_axisx
property float z_axisy
property float z_axisz
property float focal
property float scalex
property float scaley
property float centerx
property float centery
property int viewportx
property int viewporty
property float k1
property float k2
end_header
598.26001 5230.9102 14201.55
602.21002 5229.9302 14200.14
607.03003 5232.0298 14207.27
595.78003 5240.3301 14203.09
599.65997 5243.1602 14203.48
608.09998 5236.8599 14189.23
590.64001 5253.4902 14203.35
594.17999 5253.2202 14201.59
597.48999 5250.9399 14200.7
604.62 5246.4399 14182.53
609.09003 5245.3999 14181.13
580.59003 5268.6802 14201.34
583.25 5265.0298 14194.47
587.83002 5264.8901 14197.54
591.96002 5265.2002 14203.76
595.21002 5262.3198 14194.98
598.47998 5259.6401 14190.92
601.64001 5255.96 14175.83
605.67999 5255.6499 14174.17
620.91998 5254.8999 14162.37
578.62 5283.3799 14202.47
592.64001 5271.2598 14186.86
596.38 5268.1602 14179.74
598.96997 5263.9502 14171.37
602.94 5267.3101 14173.26
606.97998 5266.8501 14173.26
611.20001 5263.5298 14167.8
614.77002 5263.48 14170.87
622.95001 5267.75 14164.02
593.41998 5278.23 14174.51
597.59003 5278.8198 14177.32
600.31 5275.6802 14171.87
604.70001 5282.6899 14169.07
609.21002 5281.7598 14165.91
613.69 5280.5601 14166.16
616.40002 5273.02 14165.65
624.03003 5276.8101 14157.39
627.70001 5273.23 14155.25
632.28003 5272.98 14151.93
587.26001 5296.54 14169.55
590.70001 5290.54 14173.25
598.75 5289.1001 14171.84
605.58002 5285.8901 14161.32
609.69 5285.9502 14162.72
614.19 5284.8999 14161.32
617.46002 5282.0698 14158.92
620.53998 5282.1201 14162.08
628.72998 5281.8701 14145.46
632.92999 5278.3701 14149.9
584.94 5303.4702 14168.65
587.96997 5302.98 14170.31
592.94 5306 14167.37
596.27002 5298.9502 14168.27
599.96002 5299.75 14169.41
603.07001 5295.4502 14161.06
606.85999 5297.0601 14160.3
615.31 5294.4902 14156.09
621.41998 5289.5698 14151.14
626.28998 5295.9399 14146.83
550.41998 5337.7798 14197.88
553.15002 5329.1699 14202.72
571.23999 5324.48 14172.77
582.71002 5316.0098 14164.04
586.28998 5315.73 14170.52
593.59998 5311.9302 14166.72
597.17999 5307.0498 14156.97
602.03998 5313.5898 14159.23
607.89001 5306.1299 14153.65
616.28998 5303 14147.94
554.63 5343.4902 14195.57
576.92999 5334.1099 14168.91
580.28998 5331.7002 14169.68
583.94 5327.23 14163.09
587.47998 5326.54 14166.41
594.67999 5321.5298 14161.47
598.90997 5322.4399 14152.83
602.76001 5319.9302 14161.73
605.44 5316.2402 14154.88
613.53003 5314.77 14145.25
562.71997 5341.6099 14176.39
570.65997 5343.25 14170.64
574 5345.3599 14164.79
578.20001 5345.8599 14169.35
581.84998 5341.2402 14164.42
589.28998 5338.2402 14166.85
595.87 5332.1699 14159.02
599.34003 5326.2202 14146.47
603.47998 5326.2798 14147.87
607.34998 5328.4399 14140.37
610.28998 5327.02 14145.7
553.08002 5358.5898 14175.28
555.79999 5354.7598 14178.23
567.89001 5351.3101 14172.53
572.38 5359.3198 14166.11
575.32001 5357.6401 14166.63
583.08002 5352.5698 14161.7
586.91998 5349.6699 14159.32
590.10999 5345.6802 14155.88
596.70001 5339.6099 14148.06
601.04999 5336.79 14144.01
604.57001 5335.8599 14142.61
554.51001 5372.3999 14166.79
557.31 5364.3101 14172.95
573.40002 5368.9199 14160.83
580.85999 5365.6401 14158.45
584.07001 5361.5898 14154.93
588.03003 5359.8101 14155.44
593.81 5350.9902 14142.27
598.34003 5349.6602 14144.19
602.23999 5347.4302 14141.55
521.20001 5399.23 14203.57
542.65997 5378.79 14168.03
556.34998 5385.1802 14170
558.44 5375.1201 14168.81
562.84998 5382.46 14162.64
575.12 5380.0498 14159.74
581.53998 5371.96 14144.57
585.10999 5371.1802 14149.65
588.66998 5365.6001 14140.16
595.28998 5364.3198 14146.9
518.59998 5410.27 14201.07
522.13 5408.8599 14198.26
532.85999 5395.4902 14186.57
537.78998 5397.8398 14175.64
541.23999 5395.75 14173.1
544.26001 5389.3999 14165.54
552.15002 5384.9302 14162.12
557.40997 5395.4502 14164.44
559.59998 5386.3501 14167.82
564.65002 5394.7002 14164.44
571.63 5381.6401 14160.89
578.57001 5383.0801 14142.18
582.92999 5384.8101 14147.87
586.48999 5379.0698 14140.06
590.01001 5377.8701 14141.97
519.67999 5421.5498 14200.04
523.04999 5412.9902 14178.66
526.25 5413.5098 14184.88
530.41998 5408.0298 14181.89
538.82001 5408.1299 14170.07
541.92999 5402.6099 14160.6
558.73999 5408.29 14167.63
565.37 5401.5498 14151.95
568.70001 5393.4502 14158.22
572.44 5389.21 14148.23
575.85999 5387.04 14145.6
579.89001 5395.3701 14143.97
516.21002 5429.1099 14192.35
520.08002 5425.7202 14180.44
523.77002 5420.3901 14167.56
526.91998 5420.3701 14172.38
531.26001 5416.5298 14173.68
539.71997 5417.2002 14163.36
543.21997 5415.48 14163.88
546.63 5412.9502 14166.33
551 5409.48 14162.56
555.08002 5408.3799 14162.82
559.39001 5414.6001 14153.73
562.22998 5406.5601 14160.02
566.26001 5410.0298 14143.75
569.14001 5397.5801 14138.64
512.78003 5437.3301 14176.26
517.45001 5436.6099 14179.58
521.21002 5431.98 14166.54
525.08002 5433.96 14170.57
527.90002 5430.5098 14168.46
532.20001 5426.1401 14168.37
540.84003 5428.3999 14162.24
544.28998 5426.1499 14161.37
552.09998 5420.2798 14158.38
556.28998 5420.1499 14163.2
560.56 5420.8398 14139.83
562.83002 5412.3301 14144.72
567.65997 5423.4302 14148.42
570.71997 5412.5801 14147.52
574.64001 5409.9702 14141.83
509.64999 5448.8398 14176.88
537.17999 5433.9702 14163.57
552.90997 5428.23 14148.77
556.78003 5424.9399 14143.34
561.89001 5433.71 14143.09
564.28998 5426.3701 14149.03
527.62 5454.7202 14164.1
530.57001 5452.5298 14163.23
538.17999 5444.1001 14159.64
543.27002 5447.5298 14151.59
546.75 5445.3799 14148.96
549.90997 5440.1201 14144.32
558.15997 5438.3599 14148
536.15002 5461.0098 14166.29
555.71002 5450.6001 14146.6
0 0 0 1 0 0 0 1 0 0 0 1 0 0 0 0 0 191 1 0 0
