ply
format ascii 1.0
comment PCL generated
element vertex 56
property float x
property float y
property float z
element camera 1
property float view_px
property float view_py
property float view_pz
property float x_axisx
property float x_axisy
property float x_axisz
property float y_axisx
property float y_axisy
property float y_axisz
property float z_axisx
property float z_axisy
property float z_axisz
property float focal
property float scalex
property float scaley
property float centerx
property float centery
property int viewportx
property int viewporty
property float k1
property float k2
end_header
465.72 6416.2202 14018.16
469.51001 6408.8599 14006.33
473.53 6404.7202 13997.97
477.88 6405.0698 13999.42
482.64999 6402.79 13995.24
492 6404 13999.42
452.22 6426.5298 14018.94
456.01999 6427.6401 14016.66
466.03 6420.5601 14001.09
474.23001 6414.1299 13991.98
478.76999 6416.98 13998.89
483.79001 6417.8999 14001.7
488.45999 6414.2798 13998.14
493.53 6415.8599 13998.89
449.06 6443.3501 14023.1
461.92999 6432.3398 13994.16
466.89999 6432.52 14000.63
471.64001 6429.5698 13996.76
475.87 6427.9502 13995.71
479.60999 6428.3101 13997.07
484.59 6428.5601 13998.44
489.26999 6424.9399 13994.87
434.60999 6459.1201 14017.96
449.67001 6452.1201 14015.63
453.41 6443.46 14001
457.69 6451.1802 14000.72
462.79001 6444.2998 13991.94
467.67001 6443.1802 13997.35
472.51999 6441.54 13996.29
476.70999 6439.2598 13993.79
480.69 6442.8198 14002.14
485.35001 6438.6099 13993.79
444.57999 6459.4502 13998.98
450.06 6457.7202 13999.6
454.07999 6452.8701 13994.99
458.97 6460.5498 13994.7
463.78 6458.1802 13995.64
468.63 6456.3999 13999.6
473.54001 6455.3799 13999.91
477.54001 6450.5801 13991.96
440.48999 6472.4702 13994.75
454.95999 6465.46 13995.87
460 6475.0298 13999.66
464.64001 6470.1099 13995.06
469.32001 6465.8501 13991.91
436.45999 6486.75 13996.75
451.54999 6479.1099 13993.08
460.76001 6485.7402 13994.68
465.22 6478.25 13986.31
470.29999 6470.73 13976.17
433.44 6497.6299 13995.11
447.76999 6496.6401 13998.54
457.22 6488.6802 13993.43
419.35001 6511.8999 13997.4
424.29999 6510.8999 13997.71
443.60999 6509.02 13992.92
0 0 0 1 0 0 0 1 0 0 0 1 0 0 0 0 0 56 1 0 0
