ply
format ascii 1.0
comment PCL generated
element vertex 130
property float x
property float y
property float z
element camera 1
property float view_px
property float view_py
property float view_pz
property float x_axisx
property float x_axisy
property float x_axisz
property float y_axisx
property float y_axisy
property float y_axisz
property float z_axisx
property float z_axisy
property float z_axisz
property float focal
property float scalex
property float scaley
property float centerx
property float centery
property int viewportx
property int viewporty
property float k1
property float k2
end_header
673.37 5892.5898 14170.16
676.95001 5893.8701 14176.07
680.73999 5892.0098 14165.06
658.94 5917.1899 14190.3
662.07001 5914.3701 14186.35
666.01001 5908.4902 14175.38
670.26001 5905.5698 14171.52
674.46002 5902.1001 14164.42
679.77002 5913.4302 14166.05
681.97998 5902.7002 14162.18
687.14001 5902.6899 14163.56
691.88 5899.0698 14158.22
695.96002 5899.7002 14162.75
703.97998 5899.5698 14147.55
651.98999 5932.3301 14184.3
655.98999 5926.8701 14178.16
659.82001 5925.0801 14178.73
666.88 5916.27 14165.48
671.21002 5913.9199 14163
675.95001 5915.1802 14167.24
683.91998 5914.52 14162.14
688.17999 5911.6499 14156.52
693.28003 5911.0498 14156.52
696.88 5907.46 14152.85
700.06 5905.2002 14150.28
636.62 5944.6499 14198.07
641.76001 5954.9102 14196.91
648.5 5942.5498 14175.19
652.71997 5938.96 14171.62
656.78998 5934.0698 14166.86
660.62 5932.2798 14167.43
663.82001 5929.9302 14166.53
668.15997 5927.5801 14164.05
673.13 5925.75 14162.96
677.16998 5925.8799 14164.34
681.15002 5925.4199 14164.34
685.02002 5924.0601 14156.48
689.48999 5922.9102 14155
694.40002 5920.5801 14150.86
698 5916.9902 14147.19
701.12 5914.1401 14143.23
642.09003 5957.9302 14175.65
645.44 5956.8301 14177.7
650.06 5951.5498 14166.46
653.76001 5948.46 14165.85
658.23999 5947.23 14167.9
662.53998 5949.5498 14164.99
665.02002 5940.6699 14163.71
669.92999 5938.2202 14161.14
674.28003 5935.8799 14158.66
678.26001 5935.4302 14158.66
682.17999 5934.3501 14157.19
686.32001 5935.3301 14154.95
639.17999 5963.1201 14185.22
643.70001 5967.52 14168.29
646.78003 5963.9199 14166.3
654.94 5959.21 14163.02
659.16998 5955.5698 14159.35
663.27002 5956.04 14167.22
671.01001 5947.77 14155.46
687.71002 5947.3101 14139.97
639.76001 5968.5298 14169.67
644.85999 5978.23 14165.35
648.15002 5976.5 14165.92
652.59003 5974.7402 14164.83
656.12 5969.9102 14160.08
660.48999 5967.4702 14159.28
664.96997 5966.1001 14162.9
668.59003 5967.3999 14155.56
672.42999 5960.3398 14155.1
680.88 5953.2798 14142.68
685.39001 5962.3101 14138.65
688.33002 5952.6899 14137.68
632.91998 5991.46 14166.92
641.04999 5980.54 14167.91
646.14001 5990.1401 14165.25
649.5 5989 14167.21
653.44 5982.4902 14154.89
658.08002 5982.4302 14159.71
662.04999 5976.3198 14152.1
665.84003 5973.9399 14151.3
669 5971.02 14149.02
634.12 6002.79 14165.44
637.59998 5991.7402 14164.96
642.20001 5991.25 14164.96
647.23999 6000.2598 14160.92
650.40997 5997.3301 14158.65
654.60999 5993.2002 14151.94
663.35999 5988.2202 14152.01
666.77002 5982.2598 14142.74
630.35999 6005.7402 14167.62
639.31 6007.8398 14159.7
643.85999 6006.77 14158.32
651.44 6006.8701 14152.92
655.46002 6001.02 14140.32
659.78003 5997.8999 14139.81
664.29999 5996.6299 14141.77
668.09998 5994.1699 14142.64
628.35999 6025.6899 14160.97
636.45001 6024.8398 14160.97
639.95001 6013.7798 14160.51
644.29999 6010.9102 14154.9
648.71002 6013.98 14150.03
668.96002 6001.8999 14132.69
611.95001 6036.6099 14163.68
620.09003 6030.4702 14162.57
632.62 6027.2998 14160.1
637.53003 6035.02 14154.85
641.03003 6024 14154.49
599.03003 6047.75 14167.75
604.53003 6055.9902 14165.63
613.09998 6047.9199 14162.07
616.42999 6046.0898 14166.08
621.32001 6042.3999 14162.43
625.88 6041.25 14162.73
633.81 6038.6001 14158.5
596.01001 6064.7202 14168.89
600.78998 6059.6401 14167.6
610.38 6061.6201 14161.33
614.19 6058.6499 14159.07
618.09998 6056.75 14163.08
622.94 6052.4702 14158.06
626.87 6050.79 14156.98
597.01001 6074.8501 14164.51
601.66998 6068.5498 14160.37
615.52002 6071.8101 14161.75
619.13 6066.8799 14158.7
628.19 6057.8198 14145.53
602.91998 6081.0898 14161.58
612.59998 6083.71 14156.78
0 0 0 1 0 0 0 1 0 0 0 1 0 0 0 0 0 130 1 0 0
