ply
format ascii 1.0
comment PCL generated
element vertex 1380
property float x
property float y
property float z
element camera 1
property float view_px
property float view_py
property float view_pz
property float x_axisx
property float x_axisy
property float x_axisz
property float y_axisx
property float y_axisy
property float y_axisz
property float z_axisx
property float z_axisy
property float z_axisz
property float focal
property float scalex
property float scaley
property float centerx
property float centery
property int viewportx
property int viewporty
property float k1
property float k2
end_header
-542.77002 7365.2598 14006.55
-537.09998 7375.1602 14004.95
-626.40997 7362.7202 13980.19
-610.38 7366.5898 13971.96
-595.35999 7374.3599 13987.52
-584.85999 7376.54 13986.81
-543.46002 7374.5298 13998.14
-538.03998 7388.0098 14003.34
-531.65002 7378.3198 14005.3
-521.13 7380.4199 14004.59
-516.83002 7379.9702 14003.18
-510.70001 7383.9302 14008.21
-495.62 7392.4302 14006.08
-489.81 7390.6602 14002.02
-484.51999 7396.8599 14017.93
-626.71002 7366.3198 13961.09
-620.71002 7362.6602 13958.08
-616.72998 7366 13968.6
-611.03003 7374.4199 13960.9
-604.56 7364.9902 13969.66
-600.41998 7375.3301 13962.58
-595.42999 7375.1401 13964.7
-590.75 7378.9702 13967.97
-584.27002 7378.0801 13965.32
-579.76001 7384.1299 13974.42
-574.85999 7385.25 13977.42
-570.60999 7385.5498 13975.74
-565.06 7387.5 13981.84
-559.62 7390.9102 13992.36
-553.70001 7387.96 13992.46
-544.66998 7391 14005.01
-538.77002 7398.0498 13998.01
-533.23999 7400.5 13998.63
-527.77002 7403.7598 14004.01
-517.58002 7390.7598 13999.27
-511.44 7394.6499 14002.53
-506.57001 7406.7002 14006.75
-500.06 7394.8301 14004.66
-496.57999 7406.73 14008.79
-490.70999 7404.2598 14003.4
-484.81 7401.2202 14001.82
-478.42999 7401.6899 14005.18
-611.62 7381.5698 13950.19
-605.44 7375.7002 13965.67
-605.90997 7381.4102 13952.22
-596.23999 7385.1401 13959.38
-591.21002 7384.73 13954.6
-584.84003 7385.2402 13954.6
-579.98999 7387 13955.57
-574.48999 7389.6201 13961.32
-571.06 7391.27 13962.29
-559.52002 7389.54 13965.48
-554.17999 7394.3599 13978.65
-549.17999 7394.1899 13982.45
-539.19 7403.8301 13984.64
-533.5 7404.1299 13981.19
-528.03003 7407.3901 13986.57
-522.94 7406.1201 14002.95
-517.96997 7406.5498 14004.72
-512.33002 7407.54 14002.59
-501.03 7409.1299 14007.37
-497.35001 7418.1499 14004.42
-485.70001 7414.8198 14003.2
-479.12 7412.4399 14001.17
-473.45001 7412.96 14006.3
-469.04999 7411.1602 14004
-456.84 7409.7598 13999.94
-441.54001 7416.2598 14005.59
-617.57001 7376.0098 13939.06
-611.91998 7385.1602 13932.76
-606.38 7387.1499 13938.86
-596.46002 7387.9902 13940.54
-591.60999 7389.7202 13939.83
-585.28998 7390.9302 13941.15
-580.07001 7397.0498 13950.24
-575.15997 7398.2202 13953.33
-571.45001 7396.3101 13947.59
-565.94 7398.9399 13953.33
-560.21997 7398.77 13957.05
-554.66998 7400.8398 13966.59
-549.34003 7396.3501 13962.28
-545.09998 7396.8101 13967.41
-539.14001 7403.1401 13959.08
-523.25 7410.46 13986.83
-512.92999 7416.1802 13994.6
-501.66 7418.4702 14000.7
-496.73999 7419.6699 13982.91
-486.26001 7423.4102 13995.11
-480.04999 7426.79 14003.95
-474.17999 7424.3799 14001.92
-469.91 7424.73 14003.69
-464.22 7425.1201 14005.37
-457.72 7424.0698 14002.63
-452.14999 7426.5098 14003.33
-447.04001 7424.6499 13999.27
-442.17999 7427.0298 14001.56
-436.57001 7428.8198 14004.3
-430.28 7431.1899 14003.24
-420.10999 7428.4199 14005.02
-415.06 7427.4702 14009.18
-392.85001 7439.6699 14013.65
-376.01999 7446.21 14021.06
-618.15997 7383.1401 13928.34
-612.51001 7392.2798 13922.04
-607.02002 7394.98 13929.47
-597.21002 7397.2402 13932.2
-592.12 7396.1499 13927.79
-586.20001 7402.3398 13936.87
-580.34998 7400.6299 13932.81
-575.54999 7403.21 13938.55
-571.94 7402.7002 13935.46
-565.56 7403.27 13937.23
-560.71002 7405.21 13945.01
-549.32001 7405.6699 13955.53
-545.62 7403.9199 13956.6
-533.5 7404.1001 13955.27
-527.97998 7406.6602 13959.33
-523.46002 7413.3701 13968.07
-518.47998 7413.75 13969.75
-513.03003 7417.6401 13973.09
-506.45001 7415.3701 13972.84
-501.70999 7419.23 13977.87
-496.88 7421.8599 13962.82
-492 7423.6001 13965.47
-486.45001 7426.3198 13976.34
-480.19 7428.98 13983.76
-474.85999 7435.1802 13997.98
-464.76001 7433.7202 13997.28
-458.47 7436.27 14001.34
-452.94 7439.4199 14003.36
-448.03 7441.1299 14006.01
-443.07999 7442.0601 14003.97
-437.5 7444.5898 14009.72
-431.10999 7445.5601 14006
-425.07999 7440.3501 14002.04
-415.54001 7436.0698 14001.09
-388.23001 7447.1602 14004.59
-376.09 7447.6899 13999.54
-371.12 7448.5098 14021.67
-618.46997 7395.2998 13925.39
-612.56 7401.6099 13915.38
-597.56 7401.5 13916.1
-593.03003 7407.5 13923.41
-586.70001 7408.71 13924.74
-576.03998 7409.5498 13924.74
-571.78003 7409.8799 13924.74
-566.15002 7411.1001 13927.83
-561.19 7411.6401 13932.96
-555.31 7409.4102 13934.38
-549.78998 7412.1001 13943.48
-545.22998 7408.2598 13940.49
-540.17999 7417.3398 13935.86
-533.51001 7414.1602 13949.93
-528.59003 7415.2202 13951.25
-523.65997 7416.2002 13949.22
-518.96997 7420.8701 13957.33
-513.22998 7420.48 13954.24
-506.84 7421.0698 13959.37
-502.19 7426.3101 13965.37
-497.31 7428.2598 13950.68
-492.42001 7430.0498 13953.41
-486.07001 7431.3701 13961.55
-480.51001 7433.98 13968.96
-474.91 7435.8799 13975.06
-470.76999 7438.3398 13980.8
-465.07001 7438.7002 13980.8
-448.12 7442.5801 13984.5
-443.32999 7446.3799 13987.84
-425.78 7452.52 14000.65
-415.54001 7448.9902 13999.43
-409.91 7450.79 14003.85
-403.88 7458.3999 13996.47
-393.87 7459.0801 14001.6
-388.82999 7458.6699 14001.96
-382.54001 7461.73 14002.21
-367.07999 7453.73 14005.18
-356.01999 7462.2998 13999.2
-350.53 7467.5498 14008.55
-340.95001 7461.8501 14006.73
-324.92001 7472.2598 14013.58
-619 7401.6602 13913.26
-613.32001 7410.79 13906.95
-608.47998 7412.73 13913.04
-598.29999 7410.71 13909.34
-593.71997 7416.0698 13915.42
-587.15002 7414.4102 13911.36
-581.13 7410.5801 13925.79
-576.87 7420.2798 13920.8
-572.54999 7419.8599 13919.39
-566.91998 7421.0898 13922.48
-560.96002 7418.0601 13920.82
-555.95001 7417.9502 13926.3
-550.27002 7418.4902 13929.75
-534.59003 7429.1299 13929.79
-524.21002 7424.04 13939.81
-513.15997 7429.79 13945.89
-507.82001 7435.3501 13937.9
-502.48001 7430.6001 13949.25
-497.79001 7435.3599 13938.26
-492.17999 7437.2402 13942.68
-486.39001 7436.3101 13945.07
-480.82999 7438.9399 13952.48
-475.04999 7438.0498 13954.97
-470.76999 7438.3599 13956.65
-465.42999 7444.4502 13967.41
-458.82999 7442.02 13963.71
-453.45999 7447.9502 13969.34
-448.45999 7448.25 13969.34
-443.54999 7449.98 13970.39
-438.13 7455.2998 13979.74
-431.64999 7454.8999 13975.06
-425.98001 7456.0898 13981.51
-416.17999 7460.4502 13996.71
-404.29999 7466.2402 13985.35
-389.42999 7470.1001 13997.55
-383.13 7473.2402 13999.56
-368.23999 7477.4199 14001.13
-362.67001 7466.1201 14002.1
-356.81 7478.7998 14005.91
-351.04001 7478.3701 14004.58
-345.76999 7473.0601 14000.63
-341.54001 7474.7798 14006.73
-335.56 7469.48 14002.79
-325.35001 7482.29 14006.51
-320.14999 7478.25 14000.17
-308.67999 7478.7402 14000.17
-599.21997 7422.1401 13906.73
-594.45001 7425.2798 13908.66
-587.94 7424.3799 13906.01
-581.79999 7419.1001 13917.71
-577.47998 7428.0898 13911.39
-573.26001 7429.0898 13911.03
-567.57001 7429.6099 13914.39
-561.66998 7427.3501 13914.14
-555.77002 7425.0698 13913.89
-550.73999 7424.8599 13917.6
-546.53998 7426.04 13924.05
-540.81 7435.96 13922.5
-535.09998 7436.2402 13919.05
-529.40002 7436.6499 13919.05
-513.51001 7434.7598 13931.09
-502.35001 7439.2402 13941.25
-498.41 7444.6499 13931.58
-492.75 7445.7798 13934.58
-486.57999 7439.1299 13926.21
-481.10999 7443.2002 13936.36
-475.45999 7444.4399 13942.82
-471.31 7446.9102 13948.55
-464.94 7448.0698 13949.96
-459.31 7449.8701 13954.29
-453.59 7450.1099 13949.25
-448.85001 7454.7002 13957.27
-443.72 7452.79 13951.53
-438.25 7457.4702 13959.65
-431.89999 7459.1802 13958.93
-426.14001 7458.9102 13962.65
-416.26001 7461.8799 13975.2
-410.54001 7462.1899 13975.2
-404.45001 7469.0698 13966.49
-398.81 7471 13974.35
-389.57999 7472.9502 13978.67
-383.23001 7475.2798 13977.6
-377.67999 7479.21 13984.39
-368.63 7485.2998 13991.69
-357.12 7485.27 13993.82
-351.45001 7486.96 13996.47
-346.29999 7484.52 13997.9
-342.07001 7486.25 14004
-336.04001 7480.25 13998.73
-330.82001 7492.1299 14001.12
-325.01001 7490.96 13998.48
-320.76001 7492.6001 14002.81
-315.31 7482.6802 14004.83
-297.48999 7486.2598 14008.53
-293.17001 7486.3101 14005.07
-288.26001 7489.5 14013.91
-276.26999 7495.9102 14008.9
-599.14001 7429.9902 13897.32
-595.14001 7433.8398 13900.65
-588.60999 7432.8901 13897.92
-582.40997 7426.9102 13908.3
-578.20001 7437.3501 13904.71
-573.96997 7438.3501 13904.35
-568.33002 7439.5801 13909.03
-562.41998 7437.2798 13907.1
-556.51001 7435.0498 13908.53
-551.47998 7434.8301 13912.25
-547.16998 7434.6099 13916.05
-541.21997 7441.6001 13909.03
-530.15997 7447.3799 13915.1
-524.59998 7439.7598 13919.39
-520.32001 7440.1001 13921.07
-514.23999 7445.46 13927.05
-502.73001 7444.8999 13927.77
-493.31 7454.3599 13926.57
-487.51001 7453.4502 13928.96
-481.79999 7453.8999 13932.32
-475.91 7451.5601 13932.07
-470.95999 7452.6699 13935.16
-459.66 7455.5601 13939.22
-454.32999 7462.2402 13947.84
-448.51999 7461.1699 13945.2
-444.10001 7459.2202 13939.46
-438.54999 7462.4399 13944.84
-431.63 7467.0298 13947.82
-416.5 7466.1602 13959.07
-404.88 7476.9702 13957.14
-398.95999 7473.77 13953.8
-394.56 7471.98 13977.35
-389.12 7478.02 13963.95
-377.85999 7482.73 13966.84
-368.73999 7487.4199 13971.5
-356.57001 7488.8398 13976.27
-346.66 7492.3999 13988.45
-336.56 7491.71 13995.99
-331.04001 7497.1299 13986.3
-325.45001 7501.02 13993.08
-320.60001 7505.5698 14002.79
-315.73001 7492.7402 13999.44
-309.69 7503.1401 13997.41
-303.72 7498.21 14007.1
-297.82999 7494.8599 14000.4
-293.67999 7499.25 14005.06
-282.01001 7495.4702 14000.4
-276.62 7505.2598 14002.18
-270.85999 7505.52 14003.86
-266.39999 7501.5801 14002.66
-259.95999 7502.6699 14009.11
-238.63 7511.4702 14006.48
-609.91998 7439.1001 13890.27
-600.16998 7442.79 13895.65
-595.16998 7443.1499 13893.97
-589.57001 7444.9702 13894.93
-583.25 7437.6299 13904.35
-574.69 7447.5601 13897.57
-563.06 7445.79 13899
-557.65997 7450.3701 13901.98
-552.33002 7446.27 13909.61
-547.84998 7443.8799 13909.37
-542.06 7453.04 13906.39
-535.71002 7444.77 13909.37
-525.34998 7450.4502 13915.35
-521.02002 7450.0801 13915.71
-514.69 7451.8599 13914.99
-509.13 7454.5498 13924.08
-503.07001 7449.8398 13912.97
-499.54999 7461.75 13915.46
-493.73001 7460.6699 13912.73
-488.01999 7461.27 13919.53
-482.26001 7461.02 13921.57
-476.5 7460.8101 13923.7
-471.5 7461.21 13927.06
-465.73001 7460.8599 13925.74
-460.14001 7463.3901 13929.79
-453.73999 7464.3599 13927.66
-444.01999 7469.9302 13933.73
-438.88 7468.1001 13931.36
-431.95999 7472.6899 13934.33
-427 7473.8999 13942.46
-416.78 7471.1201 13944.26
-411.13 7472.8999 13946.99
-405.03 7479.7598 13938.28
-394.78 7476.2598 13961.21
-389.38 7482.9902 13949.13
-383.89001 7488.1602 13953.43
-378.17999 7489.1699 13954.75
-373.04999 7487.2002 13971.5
-363.03 7488.3701 13971.14
-356.84 7494.5698 13962.86
-346.82999 7495.9702 13970.99
-342.45999 7494.8301 13971.71
-336.85001 7498.1802 13983.9
-325.63 7505.2998 13976.94
-320.69 7507.73 13982.67
-316.34 7507.0601 14000.38
-309.98001 7510.3101 13986.63
-304.13 7508.27 14001.7
-298.34 7507.7598 13998.7
-294.14999 7511.48 14003.71
-288.20001 7506.6899 13995.97
-282.53 7509.1201 14001.7
-276.32001 7516.8301 13999.5
-271.32999 7518.4702 14003.83
-266.81 7513.0498 13999.9
-260.23001 7510.5601 13999.66
-248.71001 7511.1099 14004.79
-243.74001 7513.3599 14007.08
-232.25 7515 14002.99
-226.58 7518.02 14006.68
-601.15002 7454.9302 13894.32
-596.08002 7454.4702 13889.56
-589.70001 7455.7002 13890.88
-575.40002 7456.8101 13890.88
-569.63 7456.5898 13891.24
-563.91998 7457.2202 13896.36
-558.01001 7454.98 13897.79
-552.84998 7453.3599 13898.87
-548.53003 7453.1001 13902.59
-542.57001 7460.1401 13895.64
-536.47998 7455.4502 13905.32
-525.90997 7458.25 13905.92
-520.84998 7457.8901 13904.6
-515.22998 7459.6602 13905.56
-509.51999 7460.23 13910.69
-488.48999 7468.3701 13908.78
-482.14001 7470.3398 13914.87
-477.09 7470.04 13916.91
-466.35999 7470.8501 13920.36
-459.87 7470.54 13919.04
-454.57999 7478.2598 13916.77
-444.44 7477.0498 13922.97
-438.82999 7479.5601 13927.02
-432.32999 7479.1001 13922.25
-426.87 7484.2598 13924.87
-417.34 7481.0898 13937.2
-411.48001 7479.3198 13934.91
-405.57001 7489.7598 13932.89
-399.72 7488.04 13932.28
-395.07999 7481.8999 13946.04
-389.79001 7490.8301 13939.69
-384.10999 7492.4199 13937.29
-378.62 7497.7798 13946.71
-368.94 7491.6401 13953.67
-363.20001 7491.9199 13953.67
-357.10999 7500.2002 13947.68
-347.06 7500.8999 13954.48
-337 7501.6499 13964.66
-331.29001 7502.8301 13971.2
-325.88 7510.98 13963.43
-320.84 7511.2402 13965.11
-316.39999 7508.46 13978.86
-309.41 7513.8999 13969.16
-304.32999 7513.23 13985.19
-298.70999 7517.1001 13991.97
-294.41 7517.9399 13991.61
-288.67001 7518.9199 13994.62
-282.95999 7520.6401 13999.03
-276.66 7526.1299 13992.68
-271.66 7527.7798 13995.41
-267.29001 7526.7598 14001.27
-260.70001 7524.21 14000.95
-249.14 7524.02 14003.08
-244.14 7525.5601 14004.04
-238.92999 7520.79 13998.07
-232.84 7534.02 14001.39
-226.88 7528.0801 14001.27
-216.71001 7526.2002 13997.22
-211.10001 7532.0698 14004.6
-193.17 7537.2798 14003.76
-606.22998 7464.3901 13885.5
-597.04999 7466.6001 13888.23
-590.53998 7466.3599 13886.82
-585.70001 7468.8901 13889.19
-576.39001 7469.6602 13890.87
-570.5 7468.0298 13888.58
-564.51001 7465 13886.93
-553.70001 7464.7002 13894.45
-549.35999 7464.4902 13898.26
-543.19 7468.5898 13885.85
-537.87 7474.6699 13893.23
-532.08002 7474.3301 13891.83
-526.46002 7466.0498 13896.49
-521.40002 7465.6899 13895.17
-516.02002 7471.1001 13902.91
-510.10999 7479.52 13898.6
-504.35999 7469.04 13899.22
-499.92999 7478.1201 13897.91
-489.28 7480.48 13905.76
-482.82999 7480.9902 13909.13
-477.20999 7483.27 13904.69
-472.72 7480.4399 13913.29
-466.92999 7480.04 13911.88
-460.39001 7479.0601 13910.92
-454.87 7482.9199 13914.25
-444.98999 7486.2798 13916.17
-439.16 7485.2002 13913.53
-432.85999 7488.3301 13915.45
-427.17001 7489.6001 13921.99
-417.81 7489.6699 13929.16
-411.91 7487.1499 13925.47
-405.95999 7496.8301 13920.44
-400.22 7497.3301 13925.56
-395.10999 7496.1699 13924.51
-390.12 7497.1899 13925.92
-384.54999 7500.96 13929.16
-378.97 7504.8101 13934.17
-373.14001 7503.5298 13928.09
-363.47 7497.54 13938.5
-357.48999 7508.0498 13938.22
-347.29001 7505.8501 13939.66
-343.01001 7506.8901 13944.43
-337.19 7505.8999 13948.52
-331.51001 7507.7998 13956.38
-326.12 7516.6001 13948.24
-321.14001 7518.3301 13952.65
-316.57999 7512.7202 13962.71
-309.67001 7520.3398 13957.06
-304.56 7518.96 13971.77
-298.76999 7518.48 13970.45
-293.75 7519.3501 13970.09
-288.78 7521.77 13975.82
-282.26001 7521.3398 13976.18
-276.70999 7527.46 13969.48
-271.79001 7531.3398 13977.93
-267.54999 7533.8398 13988.71
-261.04999 7534.23 13993.85
-255.3 7535.27 13998.62
-249.47 7534.0801 13997.66
-243.75999 7536.3599 13999.94
-239.59 7541.6099 13988.55
-233.06 7540.8999 14002.91
-227.27 7541.04 14001.22
-217.17 7542.0498 14002.54
-211.38 7542.1299 13999.18
-205.53999 7540.3101 14001.95
-198.96001 7537.6802 13999.94
-189.12 7548.98 14002.74
-183.21001 7544.21 13998.45
-171.74001 7548.7998 14006.46
-165.89999 7546.8799 14005.87
-161.62 7549.7002 14006.1
-607.21997 7476.5298 13884.15
-597.84003 7476.5698 13882.83
-591.51001 7478.5098 13885.47
-585.82001 7479.6099 13885.12
-577.04999 7478.2002 13882.83
-570.59998 7478.75 13884.51
-565.65002 7479.98 13889.28
-559.44 7474.2002 13885.71
-554.06 7479.3701 13886.55
-549.94 7472.27 13888.83
-544.16998 7482.1499 13887.15
-537.71002 7482.5098 13883.8
-532.98999 7487.1802 13891.8
-522.19 7477.1201 13892.52
-516.75 7481.7402 13897.17
-510.79001 7489.4902 13893.21
-505.13 7480.4302 13896.48
-500.73999 7490.23 13894.88
-495.81 7492.0801 13899.29
-489.92999 7490.46 13900.37
-483.29001 7488.0801 13898.36
-477.51001 7487.9199 13902.17
-473.5 7492.8501 13899.65
-467.76001 7493.2598 13901.33
-460.87 7486.8599 13901.48
-455.29999 7489.9702 13901.81
-445.37 7492.6602 13904.09
-439.79001 7495.8999 13909.46
-433.35999 7496.8901 13907.42
-427.62 7497.4102 13912.55
-422.51001 7496.27 13911.5
-417.92999 7491.71 13908.98
-411.66 7495.6699 13915.67
-406.42001 7505.3599 13912.3
-400.63 7505.1401 13916.11
-395.45001 7502.5601 13912.43
-390.48999 7504.29 13915.15
-384.12 7506.6699 13915.75
-378.5 7509.8198 13919.44
-373.64001 7513.5298 13922.68
-363.95001 7507.5498 13933.1
-357.85999 7515.8701 13928.76
-347.75 7515.8599 13934.26
-342.60999 7514.04 13933.66
-336.85999 7514.52 13940.47
-326.37 7522.2998 13934.82
-321.29001 7521.8599 13935.18
-316.88 7519.8501 13951.93
-309.92999 7526.6602 13943.18
-303.92001 7521.0601 13951.57
-299.04999 7525.6201 13959.67
-293.88 7522.8398 13952.53
-289 7527.4399 13962.31
-282.48001 7527.02 13962.67
-276.89001 7532.4102 13954.64
-271.89001 7534.1099 13959.05
-267.59 7535.2002 13967.19
-261.20999 7538.8701 13967.15
-255.42 7538.73 13979.37
-249.73 7541.9502 13988.19
-243.92 7541.3398 13985.1
-239.73 7545.8599 13972.39
-233.34 7550.25 13996.16
-227.55 7550.2998 13992.7
-217.44 7551.3999 13995.79
-211.69 7552.8999 13995.07
-205.97 7555.75 13993.62
-199.27 7549.21 13997.25
-193.74001 7559.6001 13996.94
-189.42999 7561.1802 14001.26
-182.8 7557.1899 13998.39
-177.78999 7559.5298 14004.12
-171.25999 7559.6001 14002.35
-166.14 7557.6499 14001.76
-161.84 7559.7202 13998.99
-155.3 7559.27 14002.71
-149.56 7562.0698 14001.26
-143.77 7562.9902 14004.35
-592.28998 7488.46 13880.07
-577.31 7491.0098 13881.03
-571.40997 7489.4102 13880.43
-566.40002 7489.9302 13883.88
-560.40002 7486.9502 13883.91
-554.51001 7485.3799 13885
-550.66998 7482.23 13883.44
-544.95001 7492.8599 13883.16
-538.63 7495.3701 13883.76
-522.98999 7488.5098 13889.76
-517.71002 7495.6001 13887.84
-505.70999 7488.98 13888.44
-501.41 7500.1899 13889.48
-496.32999 7499.8599 13889.84
-490.54001 7499.6699 13893.56
-483.89001 7497.3398 13891.65
-478.19 7498.6001 13898.09
-473.66 7495.3198 13893.09
-461.89999 7503.6299 13895.93
-456.07999 7502.8398 13901.78
-446.09 7504.8301 13902.74
-440.16 7502.27 13897.37
-433.97 7507.54 13901.65
-428.14001 7506.6299 13905.74
-423.19 7508.4302 13910.14
-417.84 7503.1499 13906.22
-412.17001 7504.9399 13908.95
-406.32001 7516.8599 13909.62
-401.04999 7512.8999 13904.98
-395.97 7512.5498 13907.02
-391.04999 7515 13911.07
-384.66 7517.3301 13909.98
-378.97 7519.0498 13912.62
-373.98999 7520.6401 13911.9
-364.34 7515.4199 13923.73
-358.20001 7522.98 13917.99
-352.56 7526.1499 13923.35
-343.04001 7523.3398 13926.93
-331.76001 7529.9102 13925.35
-326.67999 7529.4199 13924.03
-321.69 7531.1099 13928.35
-316.29999 7523.3999 13934.46
-310.20001 7533.0601 13931.08
-304.23999 7528.8901 13942.11
-299.26999 7531.2798 13946.15
-294.34 7534.6001 13937.53
-289.23999 7533.8599 13950.2
-282.73999 7534.1099 13950.2
-277.16 7539.54 13943.85
-271.39999 7540.5498 13946.94
-267.79999 7540.9102 13953.76
-261.32001 7542.0298 13960.21
-255.53999 7542.27 13961.89
-249.8 7544.02 13967.98
-243.99001 7543.4502 13964.98
-239.16 7550.8501 13957.54
-227.7 7555.2598 13977.86
-221.86 7553.9702 13973.54
-216.77 7553.4902 13975.58
-206.09 7560.4302 13991.08
-189.63 7569.1001 13991.86
-183.08 7568.6699 13995.59
-178 7568.8398 13997.27
-171.53999 7571.8101 13999.27
-166.44 7571.29 14001.32
-162.10001 7571.9702 13997.59
-143.98 7573.7202 13998.55
-138.94 7576.7202 14003.91
-134.52 7573.27 14000.59
-128.73 7574.71 13999.87
-587.83002 7505.3198 13885.03
-578.25 7503.1401 13879.67
-567.21002 7500.6001 13879.79
-561.63 7503.46 13890.65
-555.46002 7498.23 13884.96
-551.06 7497.3198 13887.45
-545.98999 7507.1401 13885.75
-534.57001 7509.2998 13885.03
-529.20001 7504.9102 13884.2
-523.84003 7500.6499 13888.41
-517.31 7500.25 13883.64
-511.42001 7498.6499 13884.72
-506.53 7501.1299 13887.09
-502.03 7509.4399 13882.75
-496.98001 7509.7798 13882.75
-490.42001 7508.9702 13886.84
-484.67001 7509.4902 13890.29
-478.82999 7508.5298 13891.01
-474.38 7506.71 13890.32
-468.70999 7508.54 13893.05
-462.14001 7507.4702 13890.32
-456.54999 7510.6299 13892.33
-446.64001 7513.9902 13894.24
-440.95999 7515.8501 13898.65
-434.51001 7516.7998 13894.93
-428.67001 7515.8999 13899.01
-423.59 7515.52 13899.37
-418.32001 7511.71 13898.18
-412.67999 7514.1699 13902.13
-406.57999 7521.75 13894.8
-401.57999 7522.8799 13899.57
-396.57001 7523.9102 13902.57
-391.38 7521.3198 13898.88
-379.29001 7525.4199 13900.52
-370.14999 7530.8398 13906.48
-364.82001 7525.4102 13918.32
-352.92999 7533.9102 13912.21
-343.45999 7532.5801 13920.1
-337.53 7529.4502 13920.23
-327.07999 7538.6499 13917.21
-321.92999 7536.7798 13914.93
-316.66 7531.9302 13926.32
-310.57999 7542.3599 13924.34
-304.53 7536 13931.32
-298.82999 7538.3799 13933.68
-294.51999 7539.2202 13933.32
-289.67001 7544.8501 13933.79
-282.95001 7539.75 13936.69
-277.42001 7546.6499 13933.06
-271.66 7547.6699 13936.15
-261.62 7550.5801 13952.05
-249.92 7547.54 13950.5
-244.14999 7548.3999 13950.14
-233.45 7553.6099 13952.73
-227.83 7559.5 13961.69
-221.98 7558.2002 13957.37
-216.98 7560.6201 13964.78
-211.25999 7563.5601 13966.69
-206.09 7560.2998 13966.83
-198.94 7564.25 13976.96
-194.00999 7570.2402 13968.56
-189.78999 7575.4399 13977.96
-183.17999 7572.9199 13979.42
-171.64999 7576.77 13984.42
-166.64999 7580.6401 13994.55
-161.53999 7579.8599 13988.1
-155.73 7580.0601 13991.46
-150.03999 7586.5801 13998.46
-144.2 7585.21 13995.73
-139.07001 7583.8799 13993.1
-128.92999 7586.25 13997.14
-122.37 7585.8198 14002.55
-582.75 7505.0498 13885.39
-539.59998 7508.8901 13883.35
-524.84998 7515.2202 13878.79
-518.09003 7511.6802 13880.96
-512.28998 7511.52 13884.67
-506.89001 7517.1699 13880.11
-502.89001 7522.3101 13882.7
-497.01999 7521.21 13879.98
-491.17001 7520.4102 13884.15
-485.35999 7520.1699 13886.19
-479.28 7515.5898 13880.23
-475.14001 7518.8198 13887.27
-469.23999 7517.04 13884.91
-462.79999 7518.2002 13886.32
-457.10999 7519.8799 13885.59
-447.23001 7523.96 13888.83
-441.51001 7525.1201 13891.91
-435.07999 7526.7798 13889.51
-429.28 7526.5898 13894.91
-418.79001 7520.2202 13890.03
-413.19 7523.4502 13895.39
-407.23999 7533.9199 13893.42
-402.10999 7532.8599 13894.15
-397.06 7533.1802 13895.83
-391.97 7532.77 13896.19
-385.69 7537.2998 13899.14
-374.34 7527.6699 13899.44
-359.07999 7541.48 13902.82
-353.35999 7543.1802 13905.46
-343.75 7538.9502 13908
-337.91 7537.9302 13910.4
-332.14001 7538.3901 13915.52
-327.39001 7545.7402 13906.42
-310.89999 7550.1602 13914.86
-305.06 7549.1602 13918.95
-299.29999 7550.1602 13920.36
-294.85999 7547.75 13925.17
-289.84 7549.4702 13929.58
-283.45001 7552.9199 13924.31
-277.73001 7555.23 13924.99
-271.85999 7553.29 13922.63
-267.5 7552.9702 13928.12
-261.76001 7554.79 13935.89
-255.97 7555.0298 13937.58
-250.2 7556.1001 13942.34
-244.60001 7562.29 13939.08
-239.38 7557.9302 13945.06
-233.69 7561.4399 13943.25
-227.17999 7562.3101 13942.89
-222.14999 7563.8398 13943.85
-217.14 7566.23 13949.57
-211.37 7567.73 13948.84
-206.25999 7566.6699 13953.02
-199.14999 7572.3599 13955.16
-194.14 7575.1201 13952.02
-189.86 7578.1899 13959.07
-183.28999 7577.1499 13963.25
-178.24001 7578.79 13967.65
-171.83 7584.6299 13974.92
-166.74001 7584.8799 13978.38
-161.62 7583.3301 13970.51
-155.85001 7585.7798 13978.01
-149.33 7587.21 13975.6
-144.28 7589.4502 13979.55
-139.24001 7593.2202 13986.32
-134.92999 7596.2998 13995.05
-129.08 7594.8301 13988.96
-122.54 7595.8799 13997.09
-117.42 7594.6201 13997.82
-108.01 7598.25 13999.46
-529.84998 7524.5498 13883.9
-525.21997 7520.52 13875.9
-518.92999 7523.7798 13879.49
-513.12 7523.6699 13883.29
-507.39001 7524.6602 13881.26
-503.75 7535.1699 13882.63
-497.92001 7534.79 13881.23
-492.14001 7535.3701 13886.36
-485.89999 7528.6001 13876.36
-480.28 7531.3599 13885.53
-475.85999 7530.21 13884.49
-469.41 7531.4302 13887.58
-463.5 7529.5898 13883.53
-457.81 7531.2798 13882.81
-447.95001 7536.1201 13887.44
-442.13 7535.75 13886.13
-435.01999 7538.2202 13886.72
-429.76999 7535.0801 13885.17
-424.79001 7536.8501 13889.49
-419.92999 7540.6099 13891.12
-414.14999 7540.9302 13891.12
-407.85999 7545.3198 13890.63
-397.63 7543.8701 13891.72
-392.60999 7544.9399 13894.8
-380.44 7548.29 13895.03
-374.79999 7536.9399 13892.7
-365.84 7546.3398 13896.48
-358.76001 7550.02 13894.67
-353.79001 7552.4502 13898.71
-344.20001 7548.8901 13900.89
-338.19 7544.29 13898.3
-332.48001 7546.1899 13906.05
-327.09 7555.7598 13900.98
-322.06 7556.7402 13902.39
-317.60001 7554.3599 13907.2
-305.25 7553.77 13914.74
-299.51001 7555.48 13917.46
-295.07999 7553.4102 13911.74
-290.12 7556.5698 13918.78
-283.57001 7556.1602 13919.14
-278.12 7565.8999 13919.19
-272.14001 7561.0498 13911.47
-267.76999 7560.73 13916.96
-261.98001 7561.1299 13922.09
-256.28 7564.3301 13930.82
-249.84 7567.1299 13926
-239.58 7564.27 13932.86
-233.16 7567.7998 13931.05
-227.42 7570.1299 13933.41
-222.36 7570.9502 13933.04
-217.32001 7572.6201 13937.45
-211.53 7573.4102 13935.4
-205.78999 7575.9502 13946.17
-199.25 7576.27 13949.62
-194.3 7581.52 13939.9
-189.25 7583.1802 13944.3
-183.39999 7582.0298 13946.71
-177.63 7583.7402 13952.8
-171.82001 7584.5 13950.75
-166.07001 7587.6299 13959.47
-161.77 7590.4502 13959.7
-155.96001 7591.4302 13964.47
-149.50999 7596.4399 13967.05
-144.33 7592.2402 13960.74
-139.28 7595.25 13966.1
-134.98 7599.1001 13976.23
-129.16 7599.7798 13974.09
-117.54 7602.5298 13988.41
-508.35999 7538.9702 13883.82
-498.82001 7548.4302 13882.56
-492.79001 7545.3301 13880.92
-486.78 7542.1802 13877.61
-480.95999 7542.04 13881.42
-475.82001 7540.98 13880.47
-469.94 7539.8599 13877.74
-464.25 7541.75 13882.15
-458.45999 7541.96 13878.7
-448.63 7547.5698 13884.74
-442.76001 7546.4302 13882.01
-435.64001 7548.8999 13882.6
-430.5 7547.96 13885.1
-425.26999 7545.3799 13881.42
-420.19 7545.2202 13886.91
-414.48001 7546.9702 13889.54
-408.31 7553.7598 13880.79
-402.45001 7552.8398 13883.28
-398.19 7554.6001 13887.69
-392.35999 7554.1401 13886.28
-386.63 7555.77 13885.55
-381.01999 7559.6499 13890.55
-375.67001 7554.4702 13890.09
-371.09 7550.04 13892.63
-365.37 7551.71 13893.58
-359.34 7562.1899 13893.27
-354.09 7558.7998 13886.6
-338.73999 7556.4702 13896.9
-333.12 7560.8301 13898.08
-333.32999 7565.4399 13893.86
-322.48001 7566.73 13896.95
-311.60001 7567.1802 13896.95
-305.56 7561.5801 13905.25
-299.76001 7561.8101 13905.25
-295.44 7562.6401 13904.9
-289.54999 7560.7798 13902.62
-283.94 7566.1602 13913.7
-278.35999 7572.2202 13906.98
-272.63 7574.6802 13912.7
-268.20999 7572.9302 13915.56
-261.63 7571.8701 13917.97
-256.45001 7569.2402 13915.97
-249.92 7569.5601 13917.74
-244.96001 7573.3101 13922.73
-239.96001 7575.98 13917.83
-240.03 7578.4502 13911.25
-233.39999 7575.6602 13921.65
-227.74001 7580.8101 13927.59
-221.92 7580.9302 13925.91
-217.61 7582.6401 13932
-211.78999 7582.6602 13928.55
-205.96001 7582.3398 13934.04
-199.44 7583.3901 13938.8
-194.56 7591.54 13934.44
-189.45 7591 13934.8
-183.58 7589.1299 13935.9
-177.77 7590.04 13938.9
-171.98 7591.6099 13939.94
-166.2 7593.3101 13946.02
-161.86 7594.6001 13941.84
-156.03 7594.9199 13946.98
-149.58 7599.9302 13949.56
-144.48 7600.0698 13951.24
-139.36 7599.4502 13949.92
-135.00999 7601.0098 13954.24
-129.22 7603.2202 13954.91
-122.7 7605.8101 13967.45
-117.58 7605.27 13969.5
-481.73999 7554.1899 13880.02
-476.72 7555.2798 13883.02
-470.73999 7552.73 13877.66
-465 7553.9199 13880.74
-458.51001 7554.8198 13876.94
-453.57001 7557.3301 13880.98
-448.45001 7556.8101 13877.89
-442.79001 7559.3501 13881.93
-436.20999 7558.8599 13877.16
-431.10999 7558.6401 13880.98
-426.04001 7558.98 13882.66
-420.70001 7554.4199 13880.06
-415.14999 7559.1299 13888.14
-408.97 7565.9302 13879.38
-403.17001 7566.3901 13882.83
-398.82999 7566.73 13886.19
-392.95001 7565.5898 13883.56
-387.35999 7570.0898 13886.51
-381.51999 7569.6201 13885.1
-371.92001 7566.7598 13886.92
-371.42001 7571.46 13884.37
-365.95999 7563.8799 13892.18
-359.67999 7569.25 13882.47
-354.66 7570.9302 13885.1
-345.14001 7569.5698 13891.32
-333.79999 7576.1401 13889.73
-327.79001 7571.8301 13894.04
-322.97 7578.1401 13894.13
-318.19 7568.2402 13896.22
-312.07001 7578.6001 13894.13
-305.94 7570.8501 13898.49
-300.04001 7568.8901 13894.45
-295.82999 7572.5801 13897.77
-290.07001 7574.3999 13903.84
-284.32001 7576.1001 13906.57
-278 7582.23 13901.53
-268.53 7582.1602 13908.71
-261.95001 7581.1499 13911.2
-256.82001 7580.0098 13911.92
-250.28 7580.27 13913.6
-245.21001 7581.1099 13913.24
-240.37 7589.2202 13907.19
-233.64 7583.46 13912.15
-227.92999 7587.1802 13915.46
-222.11 7587.25 13913.7
-217.78999 7588.96 13919.78
-212.03 7591.23 13920.46
-206.11 7587.9502 13920.51
-199.64999 7591.21 13929.31
-194.05 7600.0801 13926.25
-189.61 7597.3701 13922.67
-183.78 7597.6602 13927.71
-177.96001 7597.8999 13929.48
-172.19 7600.8101 13931.39
-162.00999 7601.7002 13931.02
-155.45 7602.0298 13936.15
-149.69 7605.54 13936.01
-144.58 7605.6899 13937.69
-139.53 7608.6602 13941.37
-135.17 7609.6099 13946.13
-129.35001 7611.0498 13945.4
-122.79 7611.3999 13952.22
-437.16 7575.3799 13882.15
-431.23999 7573.77 13884.92
-421.38 7566.5801 13878.66
-415.60999 7567.6699 13880.06
-409.54999 7576.6602 13875.34
-403.85999 7579.2798 13882.73
-399.42999 7578.1802 13883.46
-393.39001 7574.0801 13875.39
-387.95001 7581.5 13883.69
-382.06 7580.3599 13881.05
-376.31 7581.98 13880.32
-371.91 7581.4302 13878.92
-366.41 7573.1401 13885.42
-360.29001 7582.1401 13882.37
-355.29001 7584.4902 13884.64
-345.57001 7578.8198 13884.55
-339.70001 7577.8198 13886.96
-334.23999 7586.1099 13884.27
-328.48001 7587.8501 13886.99
-323.39001 7588.1201 13888.67
-318.60999 7578.2202 13890.77
-311.75 7588.6099 13888.67
-306.31 7580.1201 13891.72
-300.60999 7583.27 13897.07
-296.19 7581.8501 13890.99
-290.39999 7582.8501 13893.99
-284.57999 7583.1699 13895.76
-278.32001 7590.7798 13893.44
-268.81 7590 13899.3
-262.19 7588.2402 13900.38
-257.03 7586.2598 13898.03
-250.63 7590.9902 13909.46
-245.53 7591.1099 13907.78
-240.67 7598.3901 13898.65
-234.06 7597.0498 13911.68
-228.19 7595.6899 13907.28
-222.49001 7600.1699 13913.59
-217.97 7595.3198 13907.65
-212.27 7599.75 13912.27
-206.37 7597.25 13913.72
-194.19 7605.73 13912.8
-189.8 7605.0698 13911.4
-183.94 7604.0298 13915.58
-178.16 7606.4199 13921.29
-172.34 7607.1699 13919.25
-166.49001 7606.7402 13922.98
-162.25 7613.2002 13928.27
-155.64 7611.23 13927.6
-149.83 7612.6401 13925.19
-144.72 7612.73 13925.19
-139.66 7615.7598 13930.54
-134.53 7615.23 13932.59
-128.75 7618.8799 13935.89
-122.92 7619.9399 13944.02
-117.06 7618.6899 13944.75
-422.09 7579.4702 13878.56
-416.23999 7579.0698 13877.24
-388.48999 7592.1899 13879.54
-366.92001 7583.8301 13881.28
-360.87 7594.3198 13880.94
-355.76001 7594.46 13879.17
-346.09 7590.23 13881.73
-339.45001 7588.5498 13882.81
-328.88 7597.1001 13880.21
-323.94 7601.02 13888.56
-319.01999 7588.1001 13883.54
-312.19 7599.2998 13884.52
-306.79999 7592.2998 13890.3
-300.92001 7590.9902 13885.9
-295.95999 7594.79 13890.88
-290.82999 7594.3198 13891.25
-284.23999 7593.1802 13890.3
-278.76001 7602.9702 13892.01
-269.10999 7598.4902 13891.11
-262.56 7598.9502 13896.24
-256.73999 7599.2002 13897.92
-250.89 7598.7798 13899.96
-245.14999 7601.8398 13903.63
-234.3 7604.8501 13902.17
-228.50999 7606.3999 13903.13
-222.67 7606.52 13901.45
-218.34 7608.1899 13905.85
-212.55 7609.6899 13905.12
-206.66 7607.9702 13909.57
-200.06 7606.7598 13908.62
-194.5 7617.8301 13909.59
-190.05 7615.0698 13905.92
-184.16 7613.3101 13908.79
-178.34 7614.2202 13911.79
-171.85001 7617.9199 13915.09
-166.72 7617.4102 13917.14
-162.32001 7616.5801 13910.69
-155.75 7616.8701 13914.14
-149.99001 7621.2002 13917.08
-134.64999 7621.5898 13920.44
-128.86 7625.2402 13923.74
-122.99 7624.1001 13927.84
-117.17 7625.79 13933.92
-376.98001 7595.54 13879.85
-372.62 7595.75 13879.85
-367.62 7598.1602 13883.79
-356.37 7607.3501 13879.05
-351.20999 7606.4199 13883.23
-345.91 7602.4502 13880.29
-339.98999 7600.73 13881.38
-329.41 7609.2402 13878.69
-324.26999 7608.79 13879.05
-319.5 7599.5601 13880.8
-312.78 7613.7002 13887.12
-306.44 7601.4902 13881.75
-296.29001 7603.2798 13882.7
-291.26999 7605.7402 13888.41
-284.69 7605.3198 13888.78
-279.13 7612.9502 13886.53
-269.54001 7610.6802 13889.68
-262.88 7608.1001 13887.68
-257.14999 7611.3901 13896.48
-251.21001 7608.71 13892.81
-245.33 7607.3599 13888.41
-240.91 7606.1602 13889.14
-234.56 7613.3999 13894.07
-228.78999 7615.6699 13896.34
-222.92 7615.0698 13893.34
-218.61 7617.46 13899.06
-212.8 7618.96 13898.33
-206.91 7617.1899 13901.1
-200.34 7617.4702 13904.46
-194.62 7622.6802 13894.73
-190.32001 7625.8301 13901.85
-183.64999 7622.5 13900.23
-178.53999 7622.7798 13903.68
-172.00999 7624.98 13904.26
-162.57001 7628.0698 13907.93
-155.96001 7626.8701 13908.66
-150.19 7631.1001 13909.82
-134.86 7633.8101 13918.99
-128.99001 7633.04 13914.22
-123.14 7633.3901 13921.04
-117.24 7630.71 13919.14
-107.74 7631.1201 13925.95
-324.89001 7623.1299 13879.95
-319.35001 7613.21 13881.99
-313.10001 7621.46 13877.6
-306.98999 7615.1099 13882.94
-296.76999 7615.46 13881.26
-291.64999 7615.71 13882.94
-285.06 7615.2998 13883.3
-279.57001 7625.04 13883.32
-269.23999 7622.7998 13886.46
-263.29999 7620.2998 13886.24
-257.53 7622.8198 13893.63
-251.57001 7619.4102 13888.65
-245.77 7621.04 13889.69
-240.95 7630.5698 13886.25
-234.83 7621.8901 13885.87
-229.03999 7624.23 13888.22
-223.22 7625.0498 13887.86
-218.14 7626.71 13892.17
-212.31 7627.48 13890.13
-207.16 7626.46 13894.3
-200.58 7626.7402 13897.66
-194.89999 7633.4399 13890.65
-190.58 7636.54 13897.67
-183.98 7636.2002 13901.49
-178.75999 7632 13896.79
-172.22 7634.25 13897.46
-167.07001 7633.0298 13898.19
-162.77 7637.3398 13901.12
-156.16 7636.8701 13903.17
-150.37 7640.3799 13903.02
-139.35001 7638.4702 13900.75
-134.95 7638.6602 13904.12
-129.17 7643.7002 13908.36
-122.55 7641.9702 13912.92
-117.4 7640.73 13913.64
-107.88 7641.1299 13920.46
-347.07999 7628.21 13878.34
-335.60999 7634.04 13875.41
-319.79001 7623.9102 13877.82
-313.75 7637.25 13881.12
-307.51001 7628.02 13882.8
-297.29999 7629.0898 13882.43
-292.12 7627.8999 13881.48
-285.51999 7627.48 13881.85
-279.95999 7635.73 13879.14
-269.59 7632.79 13880.97
-263.67001 7630.9902 13882.07
-257.67001 7626.9199 13877.45
-251.95 7630.8799 13885.88
-246.07001 7630.25 13882.8
-241.34 7642.77 13884.78
-235.25 7635.5298 13887.04
-229.41 7636.3198 13885
-223.59 7637.8701 13885.95
-218.39 7635.25 13884.05
-212.61 7638.1802 13885.95
-207.47 7637.8901 13891.44
-200.13 7637.4702 13893.49
-195.14999 7643.4199 13885.15
-190.75999 7643.5898 13886.83
-184.13 7642.4702 13889.25
-179.08 7645.7002 13898.04
-172.48 7645.6899 13894.59
-167.28 7643.02 13892.7
-162.25999 7648.02 13895.26
-156.37 7646.8599 13897.67
-150.57001 7650.3701 13897.52
-144.69 7649.8198 13897.89
-139.58 7651.2998 13898.83
-135.17999 7651.54 13902.28
-129.3 7651.48 13898.83
-122.68 7650.4199 13903.02
-113.12 7648.79 13909.24
-107.97 7647.4302 13908.21
-102.13 7649.7202 13912.24
-307.91 7637.9902 13877.31
-297.76999 7641.2202 13879.29
-292.59 7640.0898 13880.02
-285.95001 7638.8501 13877.31
-280.41 7647.9199 13877.67
-269.97 7643.5298 13876.87
-264.07001 7642.46 13879.29
-258.16 7641.3301 13880.02
-252.3 7641.5801 13881.7
-246.37 7639.5 13875.99
-235.57001 7646.1802 13881.18
-229.08 7649.98 13886.16
-223.92999 7649.3599 13883.16
-218.78 7648.8999 13885.21
-212.89 7648.1699 13880.45
-207.66 7644.9302 13880.6
-200.41 7648.23 13889.39
-195.5 7657.0698 13886.3
-191.10001 7657.1802 13886.3
-184.37 7652.46 13883.75
-179.25999 7653.4199 13886.82
-172.7 7655.6201 13887.41
-167.53 7654.4702 13889.82
-162.44 7656.5098 13887.04
-156.53999 7655.2998 13887.78
-150.03999 7661.1001 13893.33
-144.86 7659.02 13889.39
-139.74001 7659.8398 13890.7
-135.33 7660.04 13894.06
-129.44 7659.2998 13889.39
-122.85 7661.1499 13898.82
-117.67 7658.4502 13896.93
-113.27 7658.79 13903.74
-108.11 7657.4199 13902.71
-102.25 7658.2798 13904.11
-96.379997 7658.4102 13905.79
-90.57 7664.1499 13911.34
-270.51001 7658.6201 13880.65
-264.48999 7654.6602 13877.81
-258.62 7654.9102 13879.49
-252.7 7653.7798 13880.23
-246.88 7655.3599 13881.17
-235.24001 7659.1201 13881.02
-229.42999 7661.46 13883.36
-224.24001 7660.0601 13878.97
-219.17 7662.4902 13884.68
-213.23 7660.3701 13878.97
-207.3 7658.5898 13881.75
-200.69 7658.9302 13885.2
-195.81 7669.21 13883.14
-190.63 7667.8999 13882.11
-184.67 7664.6699 13882.26
-178.82001 7666.3701 13886.65
-172.92 7665.6001 13881.9
-167.08 7667.3599 13887.97
-162.71001 7669.4399 13886.87
-156.78999 7667.5098 13886.29
-150.24001 7671.0801 13887.81
-145.08 7670.46 13886.5
-139.96001 7672.0498 13889.22
-135.53 7671.52 13891.27
-129.67 7672.96 13890.53
-122.98 7668.9199 13889.28
-117.85 7669.8901 13894.04
-113.4 7667.2798 13895.52
-108.23 7665.9702 13894.57
-102.39 7669 13899.91
-96.489998 7667.6802 13898.97
-90.639999 7670.48 13899.17
-252.39999 7666.6602 13878.38
-247.22 7666.0601 13876.98
-242.10001 7667.0601 13880.06
-235.59 7670.5898 13878.22
-229.67999 7669.9399 13875.13
-223.84 7671.5498 13876.17
-219.49001 7673.96 13881.87
-213.63 7674.73 13879.82
-207.64999 7671.46 13879.9
-200.95 7668.8501 13878.01
-196.07001 7679.1899 13877.62
-190.92999 7680.1001 13880.61
-184.96001 7676.8701 13880.77
-178.99001 7673.3901 13875.8
-173.2 7677.8101 13880.4
-167.3 7677.3398 13882.45
-162.89 7677.96 13878.72
-157.00999 7678.2202 13882.08
-145.3 7681.9399 13883.7
-140.14999 7682.7598 13885.01
-135.72 7682.25 13887.05
-118 7679.8701 13888.52
-113.53 7676.5498 13888.69
-102.5 7676.7598 13890.37
-235.99001 7683.52 13878.03
-219.82001 7685.3901 13878.97
-213.94 7686.1602 13876.92
-207.98 7683.6602 13878.4
-201.33 7683.23 13880.45
-195.7 7693.5898 13880.05
-191.22 7691.5801 13877.8
-185.28999 7690.4702 13880.21
-179.32001 7687.77 13878.24
-173.48 7690.02 13878.9
-167.56 7689.54 13880.95
-163.17 7690.9102 13878.53
-150.67 7693.21 13879.11
-145.53 7694.1001 13882.1
-140.36 7694.1899 13882.1
-135.87 7690.77 13878.9
-130.03999 7695.1499 13883.5
-123.38 7694.0601 13887.59
-118.18 7691.3599 13885.71
-112.97 7687.9902 13885.79
-107.81 7688.0698 13885.79
-208.31 7695.8599 13876.89
-201.64999 7695.4399 13878.94
-196.00999 7705.7998 13878.54
-179.61 7699.98 13876.73
-173.77 7702.9502 13878.7
-167.83 7701.75 13879.44
-163.47 7705.2402 13879.27
-156.8 7704.1099 13881.69
-150.92999 7706.1499 13878.91
-145.73 7704.8701 13877.96
-140.61 7707.7998 13881.53
-135.37 7704.3901 13878.33
-129.47 7705.0298 13876.2
-117.68 7707.3901 13878.54
-113.13 7699.48 13882.97
-107.95 7698.0498 13880.25
-102.06 7699.6899 13884.65
-91 7700.3799 13880.92
-80.690002 7703.3398 13884.48
-129.7 7718.75 13877.38
-123.75 7716.9199 13880.17
-117.77 7712.7798 13877.26
-113.32 7712.3599 13881.08
-108.12 7710.2598 13878.74
-102.23 7712.5698 13882.76
-96.290001 7710.48 13880.42
-91.139999 7712.54 13879.31
-80.809998 7714.8301 13881.65
-74.160004 7715.7998 13886.41
-68.230003 7714.3398 13883.7
-102.4 7724.79 13881.23
-96.43 7721.23 13876.27
-91.290001 7725.48 13879.09
-81.019997 7734.5601 13881.08
-74.25 7724.27 13878.15
-68.330002 7725.0498 13879.46
-58.77 7734.7598 13881.08
-81.080002 7739.8799 13878.11
-74.379997 7738.6099 13878.86
-68.459999 7739.5098 13881.94
-58.869999 7747.71 13880.84
-52.970001 7755.0698 13876.75
0 0 0 1 0 0 0 1 0 0 0 1 0 0 0 0 0 1380 1 0 0
