ply
format ascii 1.0
comment PCL generated
element vertex 81
property float x
property float y
property float z
element camera 1
property float view_px
property float view_py
property float view_pz
property float x_axisx
property float x_axisy
property float x_axisz
property float y_axisx
property float y_axisy
property float y_axisz
property float z_axisx
property float z_axisy
property float z_axisz
property float focal
property float scalex
property float scaley
property float centerx
property float centery
property int viewportx
property int viewporty
property float k1
property float k2
end_header
-2010.63 8615.8301 14217.24
-1999.97 8622.4102 14203.92
-2018.4301 8619.3896 14201.37
-2010.29 8618.0898 14197.89
-1986.5699 8628.5303 14205.61
-1969.4301 8637.3398 14211.72
-1919.14 8657.7598 14216.9
-2002.39 8632.8398 14175.66
-1956.9 8647.4004 14182.1
-1939.62 8655.8301 14193.72
-1933.36 8659.0195 14198.05
-1927.42 8663.6602 14203.23
-1920.83 8665.4102 14206.71
-1916.29 8668.5098 14205.43
-1909.01 8671.0498 14208.4
-1889.74 8674.5703 14208.83
-2004.66 8642.6602 14167.59
-1994.67 8633.4102 14169.21
-1988.62 8637.4199 14174.81
-1983 8643.3096 14177.43
-1966.05 8653.1602 14170.13
-1958.61 8654.96 14171.83
-1940.75 8660.9102 14177.85
-1934 8661.8896 14180.06
-1927.6801 8664.8096 14180.9
-1916.39 8668.9502 14183.44
-1908.59 8669.1602 14182.6
-1903.16 8676.1602 14191.67
-1897.36 8681.5596 14198.11
-1891.22 8681.3896 14197.27
-1885.1899 8681.7197 14203.29
-1878.8199 8684.5 14202.44
-1998.5699 8650.2998 14172.75
-1991.26 8648.9004 14170.97
-1984.55 8650.0898 14165.88
-1974.04 8657.5703 14175.29
-1968.85 8665.4697 14167.64
-1962.48 8672.0498 14177.13
-1950.14 8667.7305 14170.62
-1943.17 8671.6797 14172.82
-1935.6899 8669.46 14169.77
-1929.53 8673.1602 14171.89
-1918.42 8678.1201 14175.79
-1910.09 8675.9502 14171.04
-1897.47 8682.0303 14176.21
-1892.54 8687.4297 14184.43
-1885.64 8683.7598 14183.93
-1880.3 8691.3096 14190.88
-1872.59 8691.9902 14196.91
-1861.0699 8695.1904 14178.4
-2000.3199 8657.8496 14162.47
-1992.64 8654.8896 14158.15
-1987.91 8664.7305 14167.21
-1975.58 8664.3398 14163.74
-1964.16 8679.4902 14165.14
-1958.6 8681.9805 14171.59
-1952.77 8683.29 14171.59
-1945.75 8683.1797 14168.97
-1924.62 8682.4902 14165.07
-1920.27 8686.5195 14166.85
-1913.5 8691.4697 14173.71
-1894.02 8694.2197 14172.86
-1873.54 8696.4004 14181.45
-1868.01 8703.1299 14168.95
-1863.04 8704.3799 14170.74
-1856.9 8708.3096 14176.33
-1843.42 8710.5996 14178.46
-2002.0601 8665.3799 14152.18
-1996.1801 8670.25 14159.13
-1977.3199 8671.9297 14153.53
-1970.72 8673.6797 14156.93
-1953.75 8687.6699 14156.13
-1947.4399 8690.7305 14158.67
-1940.3 8690.1299 14158.25
-1934.3199 8694.6699 14161.71
-1927.88 8697.21 14166.46
-1915.52 8700.6396 14166.04
-1909.02 8702.8799 14167.3
-1875.6899 8706.3701 14175.05
-1903.8199 8711.1201 14155.73
-1892.1 8713.5195 14163.03
0 0 0 1 0 0 0 1 0 0 0 1 0 0 0 0 0 81 1 0 0
