ply
format ascii 1.0
comment PCL generated
element vertex 107
property float x
property float y
property float z
element camera 1
property float view_px
property float view_py
property float view_pz
property float x_axisx
property float x_axisy
property float x_axisz
property float y_axisx
property float y_axisy
property float y_axisz
property float z_axisx
property float z_axisy
property float z_axisz
property float focal
property float scalex
property float scaley
property float centerx
property float centery
property int viewportx
property int viewporty
property float k1
property float k2
end_header
863.46997 5764.7798 14005.92
843.37 5774.1099 13998.32
861.14001 5775.6602 13994.97
882.15002 5772.3301 13998.39
854.15997 5789.75 13986.32
858.16998 5790.0098 13995.84
866.02002 5781.7998 13990.51
879.71002 5786.0898 13996.12
883.66998 5782.2798 13994.19
887.46002 5781.0801 13992.72
891.69 5782.75 14000.1
896.65002 5781.79 14003.43
902.03003 5783.5298 14005.73
910.14001 5784.54 14013.02
920.53003 5792.6602 14017.23
924.83002 5791.0601 14022.59
871.53003 5792.0698 13994.16
876.97998 5798.04 13991.34
881.48999 5797.7998 13996.15
886.19 5795.04 13996.99
890.16998 5795.02 13998.38
893.96002 5793.7598 13998.66
898.19 5791.7402 13999.22
903.12 5790.54 13994.42
911.07001 5790.4102 13998.94
915.46997 5793.0698 14012.51
920.90997 5795.0498 13994.75
925.77002 5796.9302 14008.5
930.64001 5798.8901 14020.6
900.28998 5801.6001 13995
905.03003 5802.8101 13995.82
909.47998 5802.0601 13997.58
912.82001 5801.54 13997.58
917.13 5799.9902 14001.19
922.66998 5806.1499 13993.29
926.89001 5803.9702 13997.27
930.73999 5799.5098 13993.88
934.47998 5801.5 14009.39
940.40002 5806.3301 14000.38
944.54999 5803.7002 13999.56
954.58002 5809.1499 14018.1
962.92999 5807.77 14018.1
967.35999 5806.8501 14021.43
971.06 5805.0498 14018.67
901.91998 5812.1201 13992.16
906.40997 5811.6001 13988.83
911.21002 5813.1499 13996.12
914.38 5811.48 13993.35
918.62 5809.3599 13995.58
924.81 5819.6099 13997.53
928.57001 5814.48 13994.42
932.53003 5810.6299 13992.51
935.52002 5807.9302 13996.68
942.20001 5817.4102 13998.92
945.96997 5812.4502 13992.48
950.32001 5811.0601 13992.76
955.07001 5812.0898 13997
958.76001 5813.7002 14005.95
964.78998 5818.9502 14014.97
969.12 5817.4102 14018.67
973.58002 5816.6602 14018.67
977.16998 5817.5698 14014.68
916.14001 5822.6499 13990.22
920.28998 5819.96 13991.07
930.82001 5824.9902 13989.9
935.14001 5823.3901 13995.27
937.87 5818.96 13995.31
944 5828.54 13997.53
948.27002 5826.5698 13996.43
952.41998 5823.8999 13995.52
957.17999 5824.9302 13999.76
965.46997 5823.0601 13996.72
969.5 5819.7202 13996.09
974.08002 5819.6401 13995.81
978.52002 5822.1899 14011.04
982.16998 5823.3901 14015.28
992.65997 5827.6602 14014.39
940.03003 5832.3901 13999.45
954.15002 5834.4902 13990.99
958.71002 5834.29 13994.13
962.03998 5833.5601 13997.46
971.26001 5830.2598 13993.32
979.5 5828.02 13996.93
982.84998 5827.46 13996.93
987.83002 5826.2998 14003.69
997.53003 5832.6001 14005.37
1001.14 5833.52 14014.61
1005.27 5830.71 14017.22
969.04999 5844.6499 13992.36
985.67999 5840.8198 14001.16
995.34003 5843.4102 13996.02
1001.64 5836.4199 13993.49
1007.08 5841.2598 13999.45
1011.03 5837.4399 14009.01
987.54999 5851.8999 13999.65
991.28998 5846.73 13996.55
997.53003 5856.25 13998.75
1001.28 5851.1499 13993.99
1003.85 5849.2998 13996.32
1007.93 5842.8198 13990.37
1012.14 5843.8398 13996.27
1016.31 5841.25 13993.79
1020.45 5841.7998 13994.89
993.08002 5857.27 13993.76
1003.08 5861.6802 13991.2
1006.21 5859.7002 13993.43
1024.38 5861.02 13998.19
0 0 0 1 0 0 0 1 0 0 0 1 0 0 0 0 0 107 1 0 0
