ply
format ascii 1.0
comment PCL generated
element vertex 67
property float x
property float y
property float z
element camera 1
property float view_px
property float view_py
property float view_pz
property float x_axisx
property float x_axisy
property float x_axisz
property float y_axisx
property float y_axisy
property float y_axisz
property float z_axisx
property float z_axisy
property float z_axisz
property float focal
property float scalex
property float scaley
property float centerx
property float centery
property int viewportx
property int viewporty
property float k1
property float k2
end_header
192.27 5988.5801 14204.2
184.56 5999.46 14204.7
188.28999 5990.21 14200.2
176.02 6022.4399 14203.34
168.32001 6036.6201 14204.04
171.85001 6038.4702 14204.84
176.98 6035.6001 14206
181.64 6036.48 14212.19
186.14999 6032.4399 14210.59
172.34 6055.8501 14217.33
177.39999 6050 14211.5
155.02 6060.3398 14204.09
159.72 6061.9302 14209.99
164.37 6062.04 14204.89
169.10001 6064.7998 14213.55
173.17999 6064.8799 14210.21
147.17999 6072.46 14205.63
155.31 6071.7202 14202.49
160.11 6076.9902 14215.08
169.47 6078.04 14216.26
143.45 6087.0298 14209.33
155.7 6086.8198 14207.66
160.35001 6086.02 14207.95
129.63 6096.4302 14200.43
133.75 6097.5601 14203.28
138.42 6097.2798 14206.62
143.73 6099.0601 14209.17
147.78999 6097.6899 14208.09
151.96001 6100.5898 14215.07
156.03999 6100.0298 14210.26
125.66 6102.3301 14204.57
129.92999 6110.27 14204.49
138.7 6109.2998 14206.46
144.03999 6112.27 14211.77
148.14 6112.0898 14213.44
152.21001 6110.7998 14210.68
108.35 6116.1401 14202.14
116.62 6119.0898 14207.45
121.87 6117.6201 14208.04
125.91 6114.3599 14204.4
134.37 6125.8101 14212.67
144.34 6124.9902 14211.3
112.09 6128.6201 14205.01
116.83 6130.5801 14204.13
122.11 6129.6602 14207.86
108.8 6141.3999 14204.53
112.34 6141.8799 14207.67
104.86 6152.23 14203.25
109.03 6154.6299 14207.08
112.55 6153.29 14206
117.91 6155.8301 14206.49
122.6 6154.3301 14208.85
127.32 6154.1499 14210.52
100.4 6168.0601 14209.72
109.85 6167.3398 14206.58
118.17 6169.71 14210.5
88.129997 6178.8901 14210
91.650002 6177.0498 14205.87
100.56 6178.27 14205.28
105.86 6176.27 14202.73
110.07 6179.9902 14207.73
113.64 6180.48 14210.87
70.580002 6198.8398 14203.15
79.419998 6192.7202 14202.39
84.18 6193.6001 14212.02
88.279999 6189.75 14207.02
91.800003 6187.2598 14201.42
0 0 0 1 0 0 0 1 0 0 0 1 0 0 0 0 0 67 1 0 0
