ply
format ascii 1.0
comment PCL generated
element vertex 324
property float x
property float y
property float z
element camera 1
property float view_px
property float view_py
property float view_pz
property float x_axisx
property float x_axisy
property float x_axisz
property float y_axisx
property float y_axisy
property float y_axisz
property float z_axisx
property float z_axisy
property float z_axisz
property float focal
property float scalex
property float scaley
property float centerx
property float centery
property int viewportx
property int viewporty
property float k1
property float k2
end_header
-82.480003 6707.9502 14162.52
-77.389999 6712.6602 14167.06
-71.57 6709.3901 14163.55
-58.060001 6709.77 14148.27
-130.2 6747.0898 14202.7
-96.220001 6723.8301 14170.06
-91.129997 6728.6602 14169.58
-86.599998 6727.9702 14175.02
-82.639999 6720.7598 14163.2
-77.529999 6724.8101 14166.39
-144.78999 6763.5098 14215.01
-139.59 6763.04 14208.53
-106.1 6737.2202 14170.5
-101.58 6737.25 14172.18
-96.410004 6736.6802 14170.82
-91.199997 6734.1001 14166.99
-86.690002 6734.8501 14163.23
-82.769997 6731.5801 14159.71
-71.769997 6727.8301 14149.82
-139.82001 6773.9399 14205.11
-125.95 6762.2998 14183.64
-120.71 6759.1602 14175.11
-106.3 6749.3398 14169.71
-101.75 6748.0801 14168.68
-96.519997 6744.8901 14161.82
-91.349998 6744.9302 14163.5
-82.93 6744.4199 14158.7
-134.72 6778.96 14189.13
-126.07 6768.5801 14170.57
-120.91 6770.6802 14171.27
-115.01 6767.4102 14171.22
-110.44 6765.48 14170.51
-106.48 6760.8599 14167.65
-101.94 6760.8901 14169.33
-96.709999 6757.7002 14162.47
-86.309998 6755.23 14153.52
-150.69 6795.3999 14199.74
-145.38 6790.8701 14193.53
-139.49001 6789.75 14185.7
-134.84 6785.2202 14176.05
-126.28 6780.0601 14168.4
-121.11 6781.5098 14167.75
-115.15 6775.6099 14162.2
-110.63 6776.96 14168.35
-106.66 6772.3301 14165.49
-102.07 6769.7798 14161.76
-96.879997 6769.8599 14161.76
-91.639999 6766.6201 14156.58
-154.86 6806.7998 14202.77
-145.53999 6798.4302 14183.14
-135.05 6795.4102 14171.17
-126.49 6790.9199 14163.2
-121.3 6792.3901 14164.31
-115.38 6789.1099 14162.5
-110.74 6783.8799 14156.61
-106.81 6781.8701 14159.27
-102.24 6780.6401 14156.56
-165.58 6818.0898 14198.89
-160.42999 6821.54 14204.07
-155.08 6816.3398 14194.75
-145.02 6804.6602 14169.96
-139.92999 6810.8198 14175.59
-135.25999 6806.25 14167.63
-126.79 6807.0698 14170.75
-121.57 6807.1602 14168.98
-115.6 6801.9302 14163.11
-106.99 6793.3701 14155.41
-165.86 6829.5898 14196.69
-160.59 6828.4502 14192.31
-155.22 6822.6001 14181.64
-151 6809.2202 14176.25
-145.38 6821.5 14177.17
-140.08 6818.3599 14165.2
-135.53 6819.7598 14167.9
-126.99 6817.9102 14167.2
-121.09 6817.3501 14164.08
-101.88 6800.3101 14145.35
-180.81 6850.1299 14205.26
-171.39 6841.04 14192.89
-166.12 6840.5098 14193.21
-160.10001 6835.3501 14178.78
-155.42 6831.46 14173.93
-151.3 6822.7402 14176.51
-145.57001 6830.3501 14169.47
-140.36 6831.8398 14167.13
-135.07001 6829.2998 14161.64
-126.51 6827.4502 14160.94
-121.19 6822.9302 14149.63
-177.14 6860.4399 14200.33
-176.84 6848.9302 14202.56
-171.03 6853.23 14192.01
-166.28999 6847.3599 14181.35
-160.32001 6844.8901 14172.51
-155.7 6843.6499 14173.16
-145.83 6842.54 14168.69
-140.59 6843.3799 14165.01
-135.28999 6840.7798 14159.42
-126.69 6836.9399 14154.59
-121.46 6837.7402 14152.58
-116.1 6831.1699 14145.69
-110.85 6830.5498 14147.7
-186.47 6864.9302 14203.16
-177.33 6867.9902 14189.9
-171.17 6858.8101 14177.54
-166.50999 6856.27 14172.04
-160.56 6855.0898 14167.57
-155.91 6853.1802 14166.88
-151.34 6854.6099 14164.46
-146.03999 6852.73 14163.76
-140.86 6856.21 14165.57
-135.55 6853.6602 14160.08
-126.85 6845.8301 14145.29
-121.6 6845.8999 14143.52
-115.61 6841.3501 14140.78
-186.09 6875.1499 14198.21
-177.53 6875.5298 14179.47
-166.87 6871.0801 14176.65
-160.84 6867.2798 14166.78
-156.19 6865.3301 14166
-151.61 6866.8101 14163.66
-146.25999 6862.9102 14158.83
-140.34 6863.0498 14153.71
-135.64 6858.4702 14144.08
-127.11 6859.98 14148.54
-197.84 6893.7998 14200.91
-192.39 6887.9102 14195.39
-186.33 6884.04 14190.57
-181.78999 6886.9502 14175.54
-177.10001 6884.4102 14170.06
-171.7 6879.8701 14167.32
-166.41 6879.3198 14167.65
-161.11 6878.77 14164.54
-155.78 6876.2002 14160.73
-151.89999 6879.6602 14164.2
-146.44 6871.1001 14148.07
-140.59 6875.27 14151.22
-198.14999 6904.6602 14197.29
-192.73 6900.0698 14194.48
-186.53999 6891.5298 14180.04
-181.41 6897.8501 14172.02
-177.39 6895.9399 14167.89
-172.03999 6893.3701 14169.21
-161.38 6890.2998 14162.37
-156.08 6889.75 14162.7
-152.08 6887.8501 14153.44
-145.99001 6881.2798 14143.13
-140.82001 6886.75 14148.97
-198.33 6910.8799 14184.14
-192.8 6902.9199 14174.41
-186.78 6900.4302 14170.7
-181.61 6905.3799 14161.57
-177.67 6906.7998 14164.27
-172.27 6902.8999 14162.9
-161.67999 6903.1299 14161.13
-156.33 6900.5801 14159.09
-152.33 6899.3799 14151.27
-146.28 6894.7798 14145.01
-208.09 6926.8101 14191.48
-198.59 6919.73 14174.7
-193.3 6920.5601 14170.92
-187.07001 6911.27 14167.08
-181.97 6918.9102 14161.75
-178.02 6920.3101 14166.12
-172.58 6915.0498 14161.97
-167.19 6911.8301 14156.82
-161.2 6910.6499 14150.68
-156.44 6905.4102 14143.16
-219.21001 6941.9902 14200.81
-213.72 6936.8198 14188.17
-208.36 6935.6602 14182.03
-198.88 6929.9199 14169.72
-193.49001 6927.3501 14171.05
-187.38 6922.77 14164.8
-182.37 6934.4502 14167.72
-178.35001 6933.2202 14166.71
-172.17 6925.25 14156.99
-167.44 6922.02 14150.17
-161.42999 6920.8198 14145.7
-229.8 6959.98 14203.75
-219.47 6950.21 14191.77
-214.00999 6946.3501 14181.83
-208.63 6944.5298 14174.34
-203.75 6937.2402 14162.62
-198.53999 6941.4399 14167.43
-193.71001 6935.5098 14161.94
-178.58 6942.0298 14158.94
-172.39999 6934.7798 14148.98
-167.72 6933.5498 14147.97
-235.5 6970.6899 14201.86
-229.95 6964.7402 14201.42
-219.73 6958.3799 14182.64
-213.64 6955.8799 14173.72
-208.99001 6956.7002 14173.38
-204.2 6952.79 14168.57
-198.91 6954.3101 14167.91
-187.34 6945.8701 14160.39
-182.89 6954.1499 14156.39
-178.74001 6948.1699 14144
-172.71001 6946.9702 14148.12
-225.52 6972.4702 14180.76
-219.98 6966.5601 14171.83
-214.06 6969.46 14175.62
-209.36 6968.9102 14172.5
-204.58 6965.6802 14167.36
-199.2 6964.4902 14162.9
-193.8 6962.6299 14165.67
-187.74001 6960.7402 14163.23
-246.23 6990.0498 14198.96
-241.67 6994.2598 14208.89
-235.41 6987.6899 14196.85
-230.47 6980.4502 14180.1
-225.7 6977.9199 14178.08
-219.64 6976.77 14166.81
-214.22 6974.9199 14161
-208.99001 6979.1201 14167.49
-204.98 6979.2202 14169.17
-199.55 6976.7002 14162.01
-194.09 6972.8198 14160.66
-187.98 6969.6099 14155.52
-246.75 7004.96 14201.75
-241.88 7000.3999 14195.61
-235.60001 6993.2002 14182.31
-230.83 6991.2998 14176.42
-225.99001 6986.73 14170.27
-220.02 6988.98 14165.91
-214.67999 6989.8301 14165.58
-209.25999 6987.9702 14159.77
-205.28 6989.3999 14164.14
-199.75999 6984.1899 14149.84
-194.25999 6978.9199 14147.38
-246.97 7011.1299 14188.55
-241.39999 7005.8799 14180.98
-235.8 6999.3198 14169.03
-230.46001 7000.1802 14168.69
-226.36 6998.29 14168.02
-220.32001 6998.4502 14159.45
-214.97 6999.2998 14159.11
-209.56 6998.1201 14152.97
-205.46001 6995.5498 14150.95
-200.19 6999.1001 14154.41
-194.60001 6991.1401 14144.81
-247.23 7018.6201 14178.04
-241.73 7015.4102 14174.59
-236.21001 7011.54 14168.11
-230.89999 7013.73 14170.47
-226.69 7008.4702 14162.98
-220.77 7012.7202 14162.64
-215.39 7012.8599 14159.2
-209.92999 7010.3301 14152.05
-205.78 7006.3999 14147.25
-268.23999 7039.5801 14199.64
-263.12 7047.25 14197.6
-253.85001 7034.0098 14178.78
-247.59 7028.8101 14172.98
-242.00999 7023.5498 14165.42
-236.63 7023.7598 14167.19
-231.28 7025.29 14168.19
-227.14999 7022.6802 14166.09
-221.22 7026.9502 14164.07
-215.67999 7022.3799 14152.8
-263.29999 7052.02 14181.61
-257.59 7044.0601 14166.91
-253.49001 7042.8799 14171.03
-247.89999 7037.6099 14165.15
-242.42999 7035.77 14164.48
-237.06 7036.6201 14165.82
-231.62 7035.4702 14163.14
-226.82001 7033.5601 14160.7
-221.37 7031.7002 14148.08
-215.35001 7033.2402 14149.09
-284.20999 7066.8501 14202.76
-275.45999 7068.5801 14205.53
-263.67999 7062.2202 14174.85
-258.12 7058.3398 14170.07
-253.89999 7054.3999 14168.64
-248.36 7050.5 14165.54
-242.92 7050.0098 14165.88
-237.42999 7047.5098 14162.19
-231.98 7046.3198 14157.73
-227.02 7039.6802 14147.49
-221.78999 7045.25 14149.83
-215.7 7044.7798 14146.8
-290.19 7080.2598 14204.56
-284.64999 7077.7598 14199.1
-269.14999 7063.3501 14170.72
-264.14001 7074.4102 14173.79
-258.66 7073.25 14174.47
-254.28999 7065.25 14164.91
-243.35001 7062.2402 14164.92
-237.14 7059.0498 14159.8
-232.31 7056.4902 14152.66
-227.44 7052.5698 14147.88
-296.47 7100.4102 14199.4
-290.63 7091.1401 14200.8
-285.22 7092.0298 14202.15
-280.79001 7083.3198 14180.98
-269.64001 7076.2598 14169.41
-263.73999 7081.8901 14163.24
-259.01001 7082.77 14166.35
-254.66 7075.4302 14158.14
-237.46001 7068.5498 14153.38
-232.71001 7068.7202 14151.7
-296.23999 7111.3501 14195.72
-281.09 7090.7798 14170.43
-275.76001 7093.71 14177.56
-264.29001 7096.8501 14167.71
-259.38 7092.96 14161.25
-255.17 7089.7202 14161.27
-248.92 7085.8398 14158.18
-243.98 7080.5298 14150.63
-237.73 7076.6602 14144.17
-291.13 7103.3301 14174.23
-285.66 7102.8398 14172.8
-280.89001 7103.04 14169.43
-276.10001 7102.5498 14169.77
-269.73999 7096.6401 14159.21
-264.60001 7104.98 14158.48
-259.79999 7104.48 14158.82
-255.52 7099.1802 14154.73
-249.11 7091.2202 14143.51
-243.72 7092.79 14147.96
-290.84 7112.8301 14167.68
-255.92999 7110.7402 14152.39
-249.61 7105.5098 14146.63
0 0 0 1 0 0 0 1 0 0 0 1 0 0 0 0 0 324 1 0 0
