ply
format ascii 1.0
comment PCL generated
element vertex 109
property float x
property float y
property float z
end_header
23.897202 12.173862 3.1991837
23.8694 12.227347 3.1989105
23.9839 12.22115 3.1989422
23.965599 12.242457 3.1988335
23.860201 12.261249 3.1987374
23.8713 12.268459 3.1987007
23.8673 12.273386 3.1986754
23.9349 12.274312 3.1986709
23.9527 12.271377 3.1986859
23.8738 12.280478 3.1986392
23.913601 12.289362 3.1985939
23.9366 12.284472 3.1986189
23.945301 12.286257 3.1986098
23.9727 12.283079 3.1986258
23.8771 12.300665 3.1985362
23.87792 12.164256 3.1992326
23.883966 12.167541 3.1992159
23.891701 12.17641 3.1991706
23.908251 12.174054 3.1991825
23.914 12.176121 3.199172
23.884251 12.185093 3.1991262
23.89628 12.205954 3.1990197
23.855799 12.214877 3.1989741
23.8843 12.213755 3.1989799
23.9659 12.217824 3.1989591
23.974051 12.223157 3.1989319
23.856199 12.238138 3.1988554
23.943674 12.236609 3.1988633
23.963699 12.234468 3.1988742
23.864086 12.24553 3.1988177
23.87505 12.247506 3.1988075
23.854851 12.254516 3.198772
23.877317 12.255754 3.1987655
23.91585 12.254517 3.198772
23.932739 12.256009 3.1987641
23.9559 12.252318 3.1987832
23.9645 12.254656 3.1987712
23.864979 12.2658 3.1987143
23.946701 12.264054 3.1987231
23.965599 12.261946 3.1987338
23.863768 12.275681 3.1986637
23.9046 12.275 3.1986673
23.932602 12.276029 3.198662
23.944267 12.278152 3.1986513
23.965067 12.274889 3.1986678
23.856174 12.284118 3.1986208
23.877167 12.285337 3.1986144
23.883099 12.286418 3.1986091
23.943666 12.285491 3.1986139
23.876429 12.295033 3.198565
23.883066 12.293867 3.198571
23.903999 12.296795 3.1985559
23.92285 12.294432 3.1985681
23.8538 12.304192 3.1985183
23.883799 12.307354 3.1985021
23.898201 12.304415 3.1985171
23.90766 12.305595 3.1985111
23.935577 12.304131 3.1985185
23.888901 12.180064 3.199152
23.866465 12.198579 3.1990576
23.873501 12.195086 3.199075
23.894165 12.193201 3.1990848
23.9035 12.193274 3.1990845
23.862949 12.207865 3.1990099
23.871901 12.213989 3.1989787
23.953772 12.223242 3.1989315
23.973549 12.234705 3.198873
23.8508 12.241958 3.1988358
23.863199 12.249793 3.1987958
23.943501 12.243592 3.1988275
23.9771 12.245228 3.1988194
23.9851 12.243924 3.1988258
23.914467 12.254529 3.1987717
23.954432 12.254472 3.1987722
23.963848 12.256006 3.1987643
23.8666 12.265882 3.1987138
23.906561 12.263816 3.1987245
23.95565 12.266284 3.1987119
23.905899 12.275643 3.1986639
23.9121 12.275691 3.1986637
23.930901 12.275271 3.1986659
23.9426 12.278986 3.1986468
23.855375 12.283481 3.1986241
23.86418 12.287018 3.198606
23.8836 12.285281 3.1986148
23.897665 12.288508 3.1985984
23.9102 12.285083 3.1986158
23.9217 12.286483 3.1986086
23.95145 12.283984 3.1986213
23.9638 12.282574 3.1986287
23.879601 12.299585 3.1985416
23.8859 12.293686 3.1985717
23.895725 12.29417 3.1985695
23.957001 12.298173 3.198549
23.8932 12.304399 3.1985173
23.903717 12.304308 3.1985178
23.9391 12.303382 3.1985223
23.8843 12.312961 3.1984735
23.925198 12.315204 3.198462
23.894199 12.34398 3.1983151
23.875099 12.196136 3.19907
23.894501 12.20992 3.1989994
23.9589 12.229643 3.198899
23.975349 12.231686 3.1988885
23.9795 12.24372 3.198827
23.9107 12.256634 3.198761
23.921101 12.28944 3.1985936
23.8759 12.32223 3.1984262
23.8878 12.325418 3.1984098
